3.466957808 0.809455156 4.325663090
3.339758158 -0.017774811 5.091228008
7.374213219 -3.920323133 6.194626331
4.922933102 -2.917007923 7.584973335
2.676016092 -2.919128180 7.243007183
2.564684629 -2.652429104 7.622363567
1.103622198 -2.577623606 6.701042175
-2.808221579 -2.195567131 4.712770462
5.789402008 -5.351581573 12.164995193
3.581212759 -3.118286371 7.152102947
0.894290984 -1.880905747 4.961461067
1.952861071 -3.946222544 10.857886314
-1.482364416 -1.683638453 4.246255875
-3.496982336 -5.263677120 8.086182594
-2.756318092 -1.707999587 2.784517527
-4.366309643 -0.794932187 3.667831182
2.228308201 -4.449469566 10.082552910
-0.205838114 -2.368492842 5.454783916
-0.743980825 -0.316448659 2.119593143
-2.581238985 -1.296235800 2.330258131
11.142485619 -3.496499538 4.904886723
2.702734470 -0.230881795 3.231793642
4.272494793 -1.154190183 5.723119736
3.417343140 0.381995469 5.617288589
2.901024342 0.433066815 4.613794327
1.000748992 -4.670662403 8.549177170
0.940901458 -3.176061153 5.861731529
-1.294101357 -2.519566298 7.609792233
-1.630756378 -1.943301320 3.043649673
-3.397224665 -4.106334209 6.754361153
-2.229640722 -0.276023597 3.369711637
-3.383720398 -1.602992296 4.329237461
-3.793103456 -2.750126600 4.521614552
4.479730606 0.037989680 4.000000000
3.388546944 0.113793112 3.087784052
4.213904381 -0.213404402 3.459729910
3.096663952 -0.033686310 3.091468811
4.353513241 -0.013446750 4.175234318
6.613878250 -3.245085955 7.267866611
3.209232330 0.318704605 3.918939114
4.493898869 -1.201750875 5.473036766
3.204938889 -0.750568926 4.216726780
2.119080782 0.989643812 4.187517643
4.199656487 -2.547970057 8.419815063
1.934101939 0.443916798 5.095502377
1.545268059 0.278636009 3.678333282
3.400825739 -1.653864026 9.429274559
3.835579634 -2.103742123 9.678442955
3.923861027 1.495943904 4.697986603
2.428075075 1.172962308 3.975907564
4.611134529 1.422594786 3.927064896
4.666100979 -0.475920320 6.517952919
2.102136612 -0.716883540 3.415109634
3.023728132 -0.129675120 3.110645056
0.219561040 -0.518159926 3.003693581
3.281358004 -0.388415754 7.933784485
3.408422947 -1.424362779 9.942621231
0.675243437 -2.741514206 6.227843761
2.358099699 -3.518147469 6.449860096
-2.820713520 -0.039584879 1.472324252
-0.211139977 -0.475449741 2.428672314
-0.466271520 -3.120327234 8.941381454
-3.730811119 -1.623789191 5.316028118
-3.411407709 -5.388722897 8.740778923
-3.536282301 -2.210963011 3.000344515
0.490393639 -2.441687107 4.401301384
3.874038935 -6.098106861 9.691684723
2.341301203 1.421177864 3.013694286
1.295446396 0.694950640 -0.559715807
-11.277335167 -2.525397062 1.664242983
0.119003914 -2.333920240 -0.981066465
6.804111481 6.753858566 1.395000815
1.849629641 -0.458452314 -1.338507056
0.904091001 -1.132962942 2.505373478
0.117999144 0.890207946 2.258422375
1.914954185 -0.339172006 -1.492506385
1.903095961 -0.320446581 -1.511628866
1.839575171 -0.448173404 -1.317063928
1.905086875 -0.297594100 -1.564853787
1.731816888 -0.662883282 -1.041781664
1.734958410 -0.657612205 -1.034780025
1.839959145 -0.399167091 -1.424353480
0.698976994 -2.865177870 0.992398262
0.261186868 1.521062255 -0.692258656
2.988421202 -2.873599768 -1.325845480
0.251228958 1.531006455 -0.687318683
6.330049038 2.908768654 0.417472184
-1.370968580 -13.033205032 0.763299108
6.467940331 2.982827902 0.426827163
0.716381609 -3.970678806 0.377504617
-0.608298540 1.295095086 -1.780438185
-1.408495665 -0.711031199 -0.360915601
-13.302790642 -8.132782936 1.316371560
1.317641020 -0.721442521 -1.036419988
1.355930686 -0.711035907 -1.011086822
1.072296143 -0.553700089 2.721551895
1.419439793 -0.905485094 -0.826567411
1.224767327 -1.352005720 -1.567665577
1.365984678 -1.786787033 -1.576974273
1.185638785 -1.001233816 -0.542806327
1.250255466 -1.369469523 -1.576900244
1.197658062 -1.122756362 -1.316200972
1.239626646 -1.184422016 -1.354747295
1.232016683 -1.352130055 -1.546782494
1.234219193 -1.081365585 -1.253917098
1.209197760 -1.165603161 -1.340925694
1.194274426 -0.823676944 -0.644489408
1.209979415 -0.952006459 -1.014801741
2.591438532 0.106065176 -0.939872742
1.011503339 0.007138996 -1.065853596
8.501397133 -3.935196400 5.138040066
8.466584206 -3.906297684 5.113607883
6.716851711 0.885867298 0.420927435
1.223435879 -1.268242002 -1.291270614
7.339371204 0.872340262 0.389115661
2.778985977 0.392687768 -0.677915096
3.059296131 -2.871333599 3.391165257
3.280633688 1.051307797 0.047429413
1.787123680 8.217861176 1.599934220
0.193885073 3.274285316 1.831825256
3.113426924 0.454130173 1.265351892
-0.969667614 2.338501453 -1.106503129
1.688751817 -0.473919481 -0.976633728
1.365685940 -0.317779779 0.926874042
1.549910665 -0.347412914 -1.659028411
1.351185203 -0.109332524 -1.713620901
1.452631712 -0.921221793 -0.388533801
5.293091297 -1.243730068 2.336460114
1.620355844 -1.552836657 -0.603221714
2.330157995 -0.404661685 10.309074402
1.378453851 1.696166158 -1.818463206
-2.752388000 -0.398452312 -0.804024577
-0.263340235 2.540709496 -2.121372461
-2.535369873 9.470122337 -1.748167396
-14.260361671 0.906986058 2.246311903
3.500778913 -0.685020268 0.138247862
-4.199579716 1.790889382 -0.397094011
0.603010058 15.869304657 -0.760883331
1.950255275 -0.895733953 -0.534445584
1.763520956 -2.608560562 -0.967110276
-3.178236246 -0.748976111 3.856591702
10.477277756 -9.967023849 5.480772972
-1.275277495 -4.253515720 5.730691910
4.356447220 -2.179675102 0.097733505
6.204182148 -11.460608482 3.396276474
3.741623163 -6.179929733 6.538709164
0.881804228 -1.520722747 0.203163758
2.410548687 -2.663443565 -1.925395966
10.462001801 2.908686399 1.724024296
-0.033639286 0.374092519 3.422786474
3.364491463 1.031059742 1.466523528
1.388507605 -1.008262038 -0.980517507
0.217013583 0.225041687 -1.953646421
1.289268136 3.035618544 2.289322138
7.777100563 5.415889740 1.833034396
-11.504374504 10.692577362 0.429427028
2.429064274 1.127400041 -0.270105779
2.349743128 -0.788549244 -0.054678466
-6.890962124 10.045156479 -5.745851040
8.942748070 -3.153748274 5.941524029
-7.405134678 8.758573532 -5.248493671
-8.217617989 9.835144997 -5.593222618
5.589244843 -0.568501472 0.282946229
5.164384365 -2.731527090 -0.273761898
-1.235011697 9.643312454 -1.688491106
2.063281059 -1.684425592 -1.588094950
2.824612856 0.865765989 -2.227954865
-10.015735626 -0.669690251 3.860700369
-2.033145666 1.415664792 1.224058509
-10.457265854 -1.019861102 0.232191145
-1.747696757 1.309708118 0.939117730
-0.275996000 -0.896375179 -2.284749269
3.866848469 -2.502134085 -0.211524382
1.489250422 -1.052794099 -1.463655233
9.339515686 -7.549222469 10.163743019
1.382098913 -1.282218099 -1.098314643
3.826120138 1.477321386 -1.274163485
-3.506125927 -5.268366337 0.130860180
-3.408277273 -5.706953049 -2.333014488
1.027717233 -5.322098732 0.584854007
7.313197136 2.720776320 0.710644066
-2.765168190 3.593745232 -2.534022570
7.999746799 -11.066702843 8.211366653
2.598948002 6.561701298 -0.039079510
5.697830677 -1.788054824 0.391746670
1.526057959 -0.898854136 -1.669209838
10.382596016 2.864941359 1.663741350
1.628700614 -0.577334166 -1.746374130
1.652062654 -0.569920480 -1.848461032
1.647458553 -0.575016975 -1.844564319
1.173935771 -1.157847524 -1.840932727
1.086237907 -1.316138506 -2.268714905
1.083289623 -1.292587638 -2.266107321
5.830919266 0.547272682 1.168433666
-1.323591113 -0.115293548 5.515619278
4.611167431 -3.598887920 6.226723671
-16.289051056 0.587344110 0.269085884
5.891080379 4.552367687 0.482905418
4.796502113 -2.640759945 2.845600605
2.428478718 -11.331179619 3.947906971
2.487689972 -11.619685173 4.153532505
-0.658561707 3.932163239 -0.740420461
1.251416802 -0.919435024 0.745358109
1.957195401 0.085430384 -1.916289568
10.418344498 2.096453428 1.349870086
15.920642853 3.063127756 3.883066893
-0.144443989 -0.699200630 -2.400340080
1.272442460 -8.656569481 0.716963291
1.250302434 -8.789002419 0.764693558
1.338248134 -1.686106324 0.290579736
-4.752949715 -2.645721912 1.981942773
5.703899860 0.847826362 -0.949639976
10.142676353 -7.744129181 2.522781610
0.751100361 0.635971248 0.720852911
-3.307220697 -3.345468283 -1.467301965
4.060980797 0.360096157 -0.224464655
4.859584808 7.091240883 0.353941739
1.389770389 -2.244973421 -2.605616570
4.798612595 6.910131931 0.285031259
0.398358554 -1.137300491 -1.018737912
2.005728483 -0.211521849 -1.786523700
1.029916525 -1.980399132 13.569079399
2.440883398 -0.716264367 0.023448668
5.063776016 -4.579069614 -0.128028914
5.113862038 -4.664784908 -0.074966937
0.057687130 2.884018898 -2.363959074
-0.163403884 2.587023973 -2.472042322
7.980114937 3.894030094 0.180752128
-13.703955650 -9.604541779 1.190071106
-14.498746872 -10.148481369 1.278703570
3.957054615 5.872499466 -0.343712091
1.598507762 -1.028172374 -1.508763909
6.285758495 -1.863657355 2.692121267
2.632099628 -2.082715273 -2.575942993
0.082444541 -0.225873694 1.596455693
1.421960473 -2.902201653 -1.235028744
0.463957816 -3.273736715 -2.311579943
-1.956986427 -4.708261967 -1.590559840
-1.206079721 0.202678367 -3.143796206
2.632286310 7.067621708 9.958504677
2.484355688 1.948236585 0.178293943
1.753002763 1.742465019 2.364355803
1.711464763 -1.811252356 -2.726768494
1.642558217 -1.712014437 -2.490256071
1.155811191 0.598128617 -1.936206341
0.265978009 1.091180563 -0.949497402
-2.420328140 2.919615269 2.195731163
1.435416698 -2.101995230 1.441504359
4.129146576 -3.436800718 -2.140877485
1.736985445 -2.928017616 -0.797713399
-4.696476936 -3.610718966 -1.320914984
4.385702610 3.268019438 0.428710520
-3.288633347 3.261266708 -1.904586673
-0.735406041 -3.219800234 1.167506695
1.489270926 -0.700699031 -2.800211430
1.474712253 -0.707726777 -2.802825689
1.619907141 -0.996374011 -1.915546536
4.824201584 -1.486040473 -2.213070631
-0.418939561 -6.721140862 -0.466076970
5.328959942 -1.441504359 -1.968968034
-9.698543549 -11.136276245 2.593053102
0.967944562 2.414638758 -2.138013840
0.971532047 2.532481909 -2.154484272
2.075806141 -1.461211562 -2.459694147
2.719649076 0.079474926 -0.662779152
-0.068967879 0.825440705 -3.074571371
-0.515368640 -1.765298247 -3.542107582
1.608199358 -2.825884819 3.683963060
8.098405838 2.759400368 0.300412476
7.663477898 2.530014277 0.025761297
-5.131335258 6.074699879 3.313218117
-2.059912443 0.956717968 -1.106065154
1.004798532 -0.839528739 -2.397154570
2.129604101 -0.878415346 -2.559309959
2.581892490 -0.677903354 -3.089278221
2.522143841 -1.272148967 -1.671188951
7.095793724 0.016791645 8.291794777
-1.054188251 -11.554104805 1.456307650
4.419668198 -5.563881874 2.276890993
0.324824154 -5.664737225 -2.200570583
-2.153940678 -0.174170315 -0.974009454
6.173385143 1.924180984 0.254596353
8.401675224 -3.288425446 1.039824486
2.524152994 -0.996187687 -2.788919210
0.577883780 -1.717316866 -1.797064066
3.828340530 -0.740243554 2.545482397
-7.145791054 -4.063254356 -0.968371928
1.089171171 -0.894957006 -2.234205484
1.094803452 -0.909212351 -2.300619125
1.548505545 -0.140911698 -0.945292771
1.507560611 -5.753705502 -3.359372377
1.094270110 -5.615070820 -2.363353729
7.670148373 -8.725256920 12.557587624
-0.538156807 -12.343997955 3.049682617
8.536321640 2.931456089 0.309795260
-8.184849739 1.935835481 -2.716910601
0.715117633 -1.790456176 -3.876191616
0.833559453 -1.463542342 -3.113715410
1.867120385 3.177280903 -1.327809572
-5.208986759 -2.219341516 3.128250122
-2.130037785 -7.640595913 -1.034583211
-6.628871918 -5.773832321 -1.784309030
1.409909844 -2.040534019 -2.230848551
3.697047472 -0.784187496 -3.100361586
1.851794124 -0.423773348 -4.499859810
0.383363634 0.641628325 -3.169306040
6.057636261 4.685047626 -1.407240987
8.572446823 -1.121047974 -0.998087347
4.275361061 4.357045650 0.050768916
0.111902483 -2.908272028 -3.901757002
0.313244015 -2.766896963 -3.900597572
5.365149021 -15.738470078 4.535465240
-6.183740616 -8.513834000 -3.048238516
-6.133870125 -8.408025742 -3.041073084
-6.624835968 -13.183429718 0.199041903
2.031923056 -0.587034941 -3.979048729
1.776349902 -1.824672222 -3.684135675
1.555688143 -1.065038085 -3.611409903
1.705164671 -1.132227063 -3.223841190
1.493758559 -0.572533071 -3.378265142
2.707191706 -1.783692837 -3.955314636
2.874560833 -4.635984421 -2.637641668
-1.665702343 1.339230418 0.816502631
-5.474743843 -12.067361832 -0.654868484
1.848242998 -1.943393826 -3.934978008
0.247452006 4.876288891 5.075267315
-1.611859202 2.922961235 13.079380035
1.730149865 -0.602238953 -4.281451702
1.833315253 -3.035130978 -3.552059412
1.654768109 -0.878220379 -2.909505844
1.794794917 -0.778698564 -3.861064672
1.746295452 -3.274688005 -3.342855215
5.217477322 -8.860055923 2.869663954
1.868170500 -1.176615119 -3.219256639
2.091225863 -2.811400414 -2.607590914
-2.140149117 6.905233860 -1.658740640
-4.021160603 10.265580177 -1.073458791
5.171453953 -1.671582580 4.154870510
6.119985104 -5.237897396 -0.485330433
-3.876033068 6.239056110 -4.000031471
2.784125805 0.837788165 -4.964444160
2.084745169 -1.626004100 3.220885992
0.466408640 -1.357020497 14.294650078
0.611410558 0.025579371 -2.229597330
2.399585724 -5.986509800 -1.846616030
0.976522088 7.230417252 -4.443178177
1.870871425 -3.953313351 1.310153842
3.728057146 -7.816015720 -0.290734351
1.488066673 -0.742202401 -1.013004303
3.350265265 -3.289610624 -3.858762980
3.086839437 -2.629532814 -4.143033028
2.064678907 -0.877742708 -3.054127216
3.076136351 0.352933913 2.880520105
3.234814882 -1.332059383 -1.948695540
1.535923362 -0.535714805 -3.250044346
1.540042281 -0.530945897 -3.265068531
-1.277854443 -9.299363136 -0.701609969
-2.642757416 -0.178550512 -1.037629604
0.809466302 -3.334287882 -3.042720556
13.979010582 -7.592065811 1.898450494
-0.026547629 1.380026460 -2.828383923
1.568201780 -1.390323997 -4.357082844
0.950377405 -1.532842159 -3.130982399
0.956570983 -1.528631449 -3.186628342
1.096397281 -1.450007796 -0.373846412
4.766276360 -3.118775129 -3.815706730
-12.074781418 1.807474136 -6.637228966
-8.965785980 -8.207918167 -6.388472080
-8.858251572 -8.140306473 -6.366360188
-1.409993172 -1.995699286 -0.129331797
2.537847996 -2.413146973 -2.625244379
-3.329954863 -3.994269609 -3.223198414
0.650014222 -1.646419168 -0.755358517
1.845300674 -1.396520972 -4.032191277
3.245078802 -4.777305603 -2.983111858
4.494355202 -4.727575779 -2.500286341
3.268196583 -4.622719765 -2.979865074
2.863702774 -3.852641821 -2.987129450
6.384793758 1.993519068 -0.889185369
-2.015072823 -9.771024704 2.322869778
2.977694035 1.707599759 -1.657530069
-9.120974541 -11.400199890 -2.791705370
-11.560561180 9.952944756 -0.045307182
4.134886742 -2.737635136 2.774294853
1.491615534 -1.383283019 -4.472725391
1.483953357 -1.395957589 -4.492321014
1.677332044 -0.733016074 -2.880603790
2.280502081 -0.456889868 -2.994329691
2.402787209 -0.612177312 -3.426531792
-1.685441256 0.617615283 7.950838089
3.313616037 -1.247257233 -3.393073559
4.260009289 -5.725518227 -1.462961912
0.067605227 -1.135686517 4.751831532
2.463214397 -1.113672972 -4.559803486
2.469957590 -1.104496360 -4.573013783
1.319088578 -0.836884439 1.780660987
0.039473411 -4.109907627 2.013721466
0.354785174 -2.637549400 -2.118583441
0.500032425 -2.341619492 -2.949948311
4.948246956 -1.057447314 -3.064602375
-4.224467754 -14.202285767 -4.809885502
0.480782628 0.465139449 -4.191976070
2.523616791 -0.369352311 3.801262617
2.139007807 -1.599959493 -1.649423957
2.186956167 1.711902618 -5.090384007
2.110367537 -1.437393069 -0.303548872
2.189408302 1.732810616 -5.094058990
2.191134691 1.707965374 -5.089065075
1.593919158 -1.979241729 -3.554218054
1.563835025 -2.006125450 -3.453684330
2.126916647 1.147043347 -4.988823891
2.456745625 -1.121125698 -4.554800034
1.565419316 -1.787455678 -4.792843342
1.493129134 -1.530037761 -4.260807991
1.242761731 -0.981587708 -0.795655906
1.624324679 -1.159031510 -2.715871096
6.874123573 -0.336785346 -3.252368212
1.699158907 -0.553703666 -3.811857700
1.716228724 -0.546964169 -3.815444708
1.517619967 -0.501554489 -3.351445436
0.371116132 -0.063187413 -0.647929966
4.408340931 -2.148389816 -3.301767349
1.871213675 0.778032362 -2.740353107
2.852699995 -0.206630319 -3.908950567
1.576972723 1.442562938 -1.696577311
-0.225712225 -2.518432379 -3.982906818
4.516727448 -2.134977579 -3.738744259
0.771368802 -0.707212448 -2.395684481
3.681813478 -8.435447693 0.536437154
9.542263031 -4.748117447 0.058832642
1.624264956 -1.990614772 -1.073133469
3.180714130 5.530544758 -0.921821892
3.188058615 5.372622013 -0.980924547
6.552046776 -3.966250658 -2.453949213
1.846808910 0.771153629 -1.885166049
9.511043549 2.411969900 11.464420319
1.917952418 -1.282173395 -3.910140038
1.700281024 -1.106709361 -2.689080477
-0.833701432 1.879714608 -6.221881866
2.101400375 -1.669348478 -3.906532288
-0.678212225 -1.221720695 -4.880304337
2.111196995 -1.292772770 -1.968786478
2.129719496 -1.289572239 -1.946151018
2.039387941 -1.374794483 -3.927713156
-3.507224560 -1.793268800 -4.977932930
2.141348124 -2.878963232 -2.503625393
2.141918898 -2.842631340 -2.556375504
2.192647219 -3.051009655 -1.578137994
1.895316124 -2.854167700 -2.629972458
-5.518362999 10.357533455 -1.906828880
1.475652099 0.510933697 -2.319275141
2.106778383 -3.382548571 -3.939227819
3.858971834 -1.410843253 -2.602001190
0.206266910 -14.515802383 3.436782360
1.659494758 -1.682868719 -4.454759121
1.779464364 -1.961695552 -5.291946888
1.766709208 -1.541041970 -4.606339455
5.740103245 -2.875695944 -4.958435059
1.759248734 -1.529933691 -4.595834255
1.668275714 -1.691483021 -4.607004166
-1.715367198 3.182328224 -3.976781368
1.752127051 -0.996648133 -4.331516266
1.078880310 0.058404066 -3.071484566
1.119346380 0.008831384 -3.101908207
0.684453845 0.198399544 -2.033335686
4.534702778 -0.153444678 -3.362357616
8.826894760 -6.152391434 -3.525260210
1.695122361 -1.775313854 -4.696712971
4.941125393 -0.225853696 -2.944343090
10.618465424 2.907355547 9.611672401
-1.639886975 -0.157922804 -0.019759970
2.051315546 -1.334357738 10.604263306
2.324919701 -0.788790107 -4.568119526
2.324798584 -0.779748380 -4.773595333
2.337788582 -0.783381939 -4.767638683
2.347894192 -0.867559016 -5.306347370
2.346626759 -0.823607385 -5.374974251
2.171321869 -0.782999039 -0.354684353
2.329214573 -0.921902597 -4.164577961
2.339547873 -0.916194201 -4.627620220
2.170978785 -1.880714417 -4.610972881
1.957069635 -2.109090805 -4.054690838
1.593405962 -0.919639111 -4.418755054
2.052345037 -1.024453998 -3.841770649
1.040953040 0.798069417 3.533729076
5.889520645 -14.336478233 2.608276606
0.008966496 -3.034122705 -3.658219337
-0.095637247 -2.693798780 -3.861568213
-0.174328253 -3.530777931 -3.491372347
-0.181548700 -3.543044806 -3.480463743
2.022363424 -1.370986700 -5.115768909
9.304989815 -6.217220783 7.377069473
9.454707146 -6.222507477 7.482358932
4.395953655 -4.500467300 0.408285558
0.913457453 1.914863348 8.138101578
-3.983264685 -6.070497990 -3.727400780
-7.070205212 -7.969481945 2.277462959
-16.602701187 -4.593693256 -3.763776064
1.700809360 -1.712721705 -4.515264511
1.862477183 -1.945464015 -4.846515179
1.852494478 -1.945391059 -4.844775200
2.070805788 -2.025425673 -5.438625813
1.194608927 -1.417401791 -2.675613642
1.887180567 -1.957105160 -4.874806881
1.556478858 -1.460829616 -3.820516348
1.773713708 -0.943977714 -4.754515171
1.773319244 -0.929366827 -4.650188923
1.778678060 -0.936573505 -4.657367706
1.399678111 -1.026287913 0.750719011
2.068363667 -5.708949089 -4.452098846
2.518298864 3.491854191 -2.399314880
3.065040350 1.482460022 -3.228205204
-3.061840057 7.090573788 -3.702784300
-3.771155357 8.339584351 -3.477897167
2.277777910 1.342407703 -2.970186949
1.168975115 -1.605796337 -2.590816975
-0.604292870 -0.030134287 -3.405402899
1.156772375 0.112111732 -2.894888639
1.161379099 0.238236234 -4.206335545
-1.999171615 -15.206995964 -0.626788378
-0.252703905 16.319335938 -3.106673479
1.886312127 -1.056151152 -5.283149719
1.837983131 -0.848789096 -5.943842411
1.725894094 -0.809890628 -6.104510784
1.710166693 -0.813172460 -6.125127316
2.071972132 -0.997502685 -4.908511162
2.171650648 -0.863031149 -4.637145996
2.709427834 -1.845072031 -5.612516403
2.732773781 -1.751967430 -5.810087204
1.909593105 -0.551097512 -5.790489674
5.497434139 -1.265989900 -4.463082314
3.795006514 -2.101909161 -4.937020779
2.852241039 -3.096780539 -1.648602128
-0.485087693 -3.620336533 -5.121265888
2.020020247 -2.757415533 -1.854654789
2.221574783 -3.419858456 -0.032602157
-5.255759716 1.356888533 -6.448458672
1.297731280 -6.829598904 -2.889702797
0.450564265 6.997599602 1.913437128
2.065755129 -1.006628752 -5.183087826
2.885246992 -1.932265401 -5.702875614
3.848839760 -0.055010553 -3.875970840
3.573382616 -1.613985419 -6.020367622
1.770798564 -1.365995169 -4.870885372
1.429896116 -0.648257434 -5.647389889
2.025793791 -1.801386237 -4.658165455
2.687151194 -2.243227720 -5.664780140
2.692047834 -2.241614819 -5.654927254
1.568065763 -1.050797462 -4.808165550
1.567694426 -1.054979563 -4.805526257
-2.224220514 0.287587881 -5.242867470
1.914837360 -1.030482650 -5.526742935
-0.884792507 -1.712097287 -0.803727925
1.729563951 -1.600837946 -4.061219692
1.459426999 0.161349773 -5.058924198
0.443102330 -0.269289702 -4.278542519
-1.485059857 1.235176325 -5.498833656
0.779623866 2.403471231 -3.077518940
-0.194535851 2.986343622 -3.120908976
-0.197599202 2.926506042 -3.137625456
3.844416380 -7.753297329 4.071630478
3.800081015 -7.530059338 3.808942318
6.475212097 -4.466085434 1.541925669
2.175697088 -1.542999625 -3.970274448
2.355361700 -1.670204520 -5.329215527
-7.798298836 14.567658424 -1.367314577
-0.484607965 -0.714877188 2.464421034
-0.155203894 -0.363861591 2.208034277
-0.381648540 -1.278267741 0.768256962
-0.995930135 0.782040477 1.306702971
1.256661415 1.929368973 2.586294651
0.838024855 1.446636438 3.056486607
1.552369475 1.409456253 1.833455443
-0.179153398 -0.458786011 1.719038129
-0.110911831 -0.502338648 2.102030516
-0.433705926 -0.580185056 1.601292014
0.544543922 -0.434040129 2.291045427
0.163798422 -0.456325829 2.246175528
-0.285109282 0.043552086 1.464497447
-0.578929305 -0.305881143 1.156160235
-0.402250141 1.029847026 1.145563483
-0.531505585 1.292934418 1.453573108
0.356767327 0.316677392 2.013173103
4.457176685 -2.113106966 5.284695625
1.466349483 -4.092257500 2.799918413
2.724231958 -3.761940002 2.769151688
0.301787227 0.014528852 1.879155636
1.637778163 0.550389171 2.878899336
-0.115070313 -0.679854751 2.638431311
-1.225473642 -0.896141112 1.797291636
0.258880287 -2.227853775 1.466870427
0.216819644 -0.604131699 2.844830036
-0.762461185 0.894531190 2.234392405
1.346198082 -1.029911160 1.934623480
0.607843518 -0.568642914 2.208795547
0.128583431 -0.979765475 1.448317409
-2.314370394 -0.314372778 3.537942886
-0.696306229 0.822480738 2.031883240
0.841680169 0.297022253 1.560618997
0.836228669 -0.702622771 1.213013411
9.189363480 -4.392128468 10.809601784
-3.255517960 -1.371365905 4.796982765
2.348171949 -4.009908676 2.846698999
0.353473037 -1.222831845 4.064099312
-0.651246607 0.939828634 1.257992029
-0.123008110 -0.050447311 1.705921650
-0.806922197 -0.169886619 2.028493643
0.254576236 -0.755466402 2.546435118
1.176699638 3.717943668 4.040478230
0.900530219 1.099744439 2.811765432
0.832353890 1.457725763 3.065244436
1.223003983 1.150724888 2.569470644
1.379100084 -3.593406677 2.493389606
1.546773791 1.435945749 1.840050220
0.880666494 1.323620200 1.790019512
1.163076043 -3.566621542 2.456971884
0.346485049 -2.207556009 2.183064461
-0.129955962 0.258373529 2.083804846
-0.802404940 -0.641204774 2.192296982
2.428481579 -3.263604641 2.407163620
-0.682795703 -0.399542302 1.872936010
-0.688574195 -0.356208831 2.155548573
-1.279937267 -0.569916427 3.809827805
5.413569450 -4.967974186 12.377828598
0.163654223 -1.225901365 1.954442859
-0.285938293 -0.729272664 2.812466860
-0.838761568 -0.252341658 2.097327709
1.599721432 -2.643391371 1.891573787
-0.677770793 -0.268183738 1.832922935
-0.247928411 -0.512415469 2.887636423
0.394604564 -0.207716897 2.438560724
2.232019186 -0.710097075 3.591583252
-0.321871281 0.051592115 1.700404525
2.129004002 1.799729347 3.208567142
2.430923462 0.117400244 2.624915361
-0.006562809 -0.606604695 2.492610931
0.363186389 -0.600668788 2.981201649
-0.930047154 -0.190459371 1.548952103
1.496877670 -2.787837982 2.275749922
0.112663306 -1.118950367 3.673004627
-0.107135616 0.185035601 1.639055014
2.887685061 0.124543764 2.070535898
1.909329534 -3.119191647 2.257762671
0.985629141 1.580525398 2.001566887
-0.208086699 -0.076316603 2.205909967
-0.729185462 -1.450164914 0.841102779
-4.618035316 3.492008924 5.911489487
0.092951715 -2.529042721 4.264382839
-0.607289970 -0.464492917 1.846648574
1.057764769 -1.158118606 1.826461315
1.609573364 0.750446260 3.293724298
2.094368696 -2.023990631 4.583830357
1.036833644 1.174247146 2.942062140
0.087410852 -0.337200135 2.319100618
-0.245129943 -0.694667816 2.294593096
-0.277168453 -0.773223102 2.884739876
-0.364686817 -1.097097993 1.300267339
-0.657580674 1.548989892 2.186869621
-1.333012342 1.340078950 3.309150457
0.820535183 2.444237471 3.146043777
0.411170840 -0.211974174 2.435038567
-0.743972182 1.738858461 2.511835098
1.717895865 1.418799877 2.541024446
0.252326488 -0.692014933 2.718050718
0.354518026 0.194006443 2.371794701
-0.189527974 -0.811847568 3.038891077
-0.863354862 -0.612457454 2.971290350
1.543927789 1.531036258 1.716518402
-1.289503098 2.798894167 2.983613253
-1.589322448 1.277846456 1.974649191
1.849902987 -1.574454546 2.279536486
1.977127552 -1.150952220 2.619474649
1.809022307 -0.447639734 2.655936956
0.422367275 0.517557740 3.349511385
0.084117129 0.393277109 2.597230911
2.141857386 -1.081239939 2.413901806
2.472552061 -1.150240302 2.653789759
0.766234398 0.840308607 2.085275173
0.218478784 -0.247653678 2.407451868
0.199232578 -0.466268539 2.625048399
-0.004040150 -0.606933594 2.446997881
-0.999388993 1.021403909 2.537103653
3.903183937 -5.409933090 4.001812458
0.433751523 -0.669475973 3.411029816
0.823742092 1.413967490 3.057791948
0.203877747 -0.578305602 2.673142195
-0.184928745 -0.562013209 2.103290558
1.501802206 1.503958225 1.633336067
1.534082174 1.471528888 1.877694488
0.253241569 -1.273741007 2.032241106
0.280589819 -0.616755009 2.658132553
0.444850862 -0.817775667 3.283979177
-0.431935012 -1.772994518 2.320209503
0.322820038 -1.708844185 2.559145689
-0.304580480 -1.080309272 3.486659765
1.602262378 0.641319394 2.563192606
-0.327037275 0.494929552 3.813375950
-0.033722058 -0.421565384 2.643070459
0.583297312 -1.231834888 1.966494203
0.362580448 -0.799729347 3.513842344
0.156444907 -0.861211121 2.880135536
0.226790801 -0.553105831 3.183081627
2.299870014 -1.155778289 2.051521540
0.852817118 -1.842513442 2.718247414
1.819542050 0.027754210 1.284061790
2.212629080 0.062716827 1.627768278
0.644769371 -0.393599331 2.303240061
2.029845953 0.060162488 0.600128531
1.710034251 -0.189340025 2.112811804
0.975148737 -0.816015482 1.455891013
0.157359689 -0.405276209 2.282982826
-0.867531598 1.968284726 2.816632509
1.414795876 -1.328806162 1.650526524
-0.941234648 2.141564131 3.074186087
2.426955938 -1.250350714 2.443411827
-0.660867870 -1.064788938 1.696481705
0.710056663 -0.671621859 1.131234527
0.768347800 -0.505506754 2.871733189
-3.307872295 -1.965844274 4.813744545
0.775059462 -0.521788299 2.827915192
0.111562468 -0.492411762 0.672442317
2.676062822 2.384010792 0.196281508
2.494611025 0.802113533 0.104934290
2.477437735 0.812450349 0.104568608
-1.540109754 -1.715530515 0.900569737
1.092084408 -0.321927905 1.647887588
1.118932605 -0.261316001 1.245717883
1.079777837 -0.141701728 1.418612599
3.062289715 -2.904507160 1.159073591
1.143585324 -0.310458392 1.337829471
1.099634528 -0.152037129 1.421063542
1.102349401 -0.277817219 1.356293678
1.050664783 -0.203974500 1.452569008
0.967127562 -0.313750505 2.383614779
0.977069497 -0.311377555 2.400965691
1.116227865 0.115390509 8.751746178
0.996849537 -0.068054102 0.941221833
1.068558455 -0.495734334 5.817818642
0.487392485 -0.401516974 5.436127663
0.516290247 -0.674689412 1.723412633
6.654016972 -5.013933182 10.513456345
0.507774353 -0.723650038 1.237354159
1.471786737 -1.096658945 1.213891983
-1.219130278 -0.933968008 14.030968666
1.672898293 -1.161416411 1.072952628
1.490909457 -1.090035915 1.185411930
-0.004480219 -0.355137795 6.341814041
0.850624442 -0.551653266 0.564255953
-0.137200728 -0.605605602 7.725017071
0.853348792 -0.716510117 2.279546976
0.789201081 -0.202402547 1.060225487
2.029334068 -0.253644615 0.394658953
2.053448915 -0.253954560 0.402320236
-0.681277752 -0.227334693 7.508676052
0.503468812 -0.619375348 1.358077407
0.371492118 -0.384261638 5.145383358
-0.693648934 -2.336166382 2.850494862
1.910940766 0.632971346 0.042142309
0.299303651 -0.822124302 1.165715098
0.997722208 0.795074165 6.383074760
0.492861569 -0.825023353 1.837913513
1.100588918 0.935652852 5.979500294
1.901195884 0.635766089 0.022370886
0.269344628 -0.935482383 1.320907116
0.356221914 -0.922191203 1.323305964
1.365630031 -0.791730642 1.906833529
1.376717329 -0.793207526 1.890649915
0.955087423 -0.917913496 1.379002571
1.162204266 -0.569299102 1.857506156
1.353287101 -0.742409945 0.706867099
1.393953681 -0.634287179 1.474684715
1.350676060 -0.765709519 0.693200588
0.403863430 -0.316379458 2.794422150
1.636450052 -0.739128530 0.817394495
-0.580217600 0.176365271 5.511217117
1.626502872 -0.740091920 0.802715719
0.414003521 -0.266931832 3.109607458
0.314553052 0.064950526 6.555932999
1.009700060 -0.643168867 1.762272477
1.410206676 1.048887730 0.081843540
-0.599429905 -1.018995166 1.429754615
1.232105017 -0.809377074 2.003345728
0.508330703 0.586970627 4.497176647
1.164335370 -5.555119514 2.265697956
0.559177577 -0.809153795 0.602913916
-1.832998991 2.041769266 4.724052906
0.072191112 -6.749123096 5.903163910
1.089114547 -0.608589947 0.982691526
1.220365167 -0.761128068 2.498757362
0.592983961 -1.031726837 0.501608014
0.438384742 -2.350703001 0.474205703
0.573014081 0.773313940 4.970867634
-0.461894929 -0.825331390 1.043349385
-0.834425032 -1.389931798 1.413895726
-0.479393423 -0.838702202 1.099569917
-1.019087553 -2.337172747 2.641631365
-0.232706740 1.303838372 9.318337440
-1.367407084 -4.470527649 6.380572319
-0.791549623 -1.758514762 2.095716715
-0.555130959 -0.913746774 1.228965521
-0.839166820 -1.841646910 3.254410028
7.436802864 1.403140068 0.254270583
-0.928454638 -1.476110935 1.558928490
8.077630043 1.622887135 0.355365425
-0.947224855 -1.834879518 3.416822195
1.460968733 -2.101133585 1.689736843
-0.024989242 2.029466391 17.765844345
0.458552241 -0.067823268 6.276950359
1.195534110 0.676834762 0.012731045
7.016540527 5.372730732 0.494729608
16.678188324 -5.429248810 5.708393097
6.736572742 4.843920708 0.496360064
3.798452139 -2.529981852 2.613095760
1.033580184 -0.716468692 0.751112819
0.959727645 -1.542199373 0.516446471
0.757235944 -0.338863224 1.213619709
0.950275123 -0.356876910 0.467280269
0.941007912 -0.364593536 0.475319266
-0.517623842 4.745092392 0.960896015
-6.201308250 -5.369660378 1.435012579
4.942430019 2.290720463 2.104113579
10.093694687 8.356196404 4.951239586
11.792748451 9.734951973 5.790498734
10.073640823 8.331286430 4.915048599
3.523729324 -7.977281094 11.900938034
6.182832241 0.422508031 1.119806647
2.562742949 -1.939253092 0.035984311
2.635954618 -1.965537906 0.036814999
-1.574059606 -2.448372841 0.022014586
1.267407298 -0.095506810 0.228631943
1.258621454 -0.088176176 0.224612430
2.348047495 2.011434078 -0.060142636
1.492990732 -0.959951937 1.222943902
1.120673656 -2.450129271 2.105848312
1.470803618 -1.431764841 1.212687969
1.468490481 -1.427786231 1.203893661
5.345294476 -1.743351698 2.270058870
5.786301136 4.630968094 3.025399446
3.363947153 -3.564825535 5.576613903
1.356854320 -1.016293168 1.321431398
0.762835085 -0.646120548 0.715967476
0.790041983 -0.579634726 0.074093342
0.787508786 -0.622087061 0.278878808
0.813801527 -0.538874149 2.433606625
1.057538271 -0.766016722 0.481542736
1.068498850 -0.764485717 0.492016792
1.068498731 -0.764485896 0.492016733
1.313785195 -1.406436205 0.455140680
1.376597762 -1.579317927 0.230421185
1.362389445 -1.575822353 0.232784316
1.203989387 1.570092320 11.925827026
5.295407295 0.573435605 4.940671444
3.461334944 0.290875703 1.385264277
3.451568604 0.281326622 1.373103976
2.246457100 3.613652706 1.067959189
0.503892839 -0.161217228 0.678009629
0.523150444 -0.154948279 0.701750696
0.213002264 0.809925854 1.802919388
0.682866633 -0.067835584 2.802003145
0.859982431 0.164923266 1.948311090
1.022613168 -0.260842830 0.070332155
2.271349907 -1.432843089 -0.363150477
7.485332966 -7.811398983 4.875751495
1.216579437 -0.576427639 2.607259750
-8.445767403 -5.608985424 10.304578781
-0.724398077 -2.452715874 0.902459204
-9.417610168 -6.130488873 11.528575897
2.330048084 -1.388946414 -0.431173116
-4.640191078 -0.939590871 0.470576108
1.932268500 -1.274709702 1.019696951
2.009929180 -2.191315413 1.939113736
2.483767033 -1.702668905 3.564042568
2.422976971 -2.059701443 3.831678629
1.796108007 -2.156725407 1.237621903
2.073929071 -2.202556133 2.120096445
1.728476644 -1.334898472 0.025794420
1.745209098 -1.331650615 0.021741392
3.619374037 0.249814048 1.017537236
0.803363562 -0.729515910 1.546824694
0.803231180 -0.873440266 -0.090428032
1.013638496 -0.787907302 1.124432445
0.398697257 -0.551976442 0.392605305
-2.183907986 0.596494734 3.622692347
-3.274787664 0.587029934 4.860898495
2.266565561 1.422119141 0.870548666
1.915083408 -0.581739366 0.161242515
9.379899025 -3.236382723 6.328015327
6.463218689 0.163072512 9.249006271
6.341633320 0.102098249 9.063654900
6.930887222 0.378474921 10.282692909
-0.734987974 -4.816573143 3.686573029
-0.830711365 -4.945499420 3.890697956
-0.730575919 -4.754543304 3.562603712
-0.790174901 -4.883076191 3.745610237
0.578041613 -0.938532233 -1.065120220
1.398608088 0.413769871 6.453750610
-2.574348688 -3.106102705 1.531548738
1.122329116 -0.823136628 1.452608109
0.784417212 -0.616421044 3.829992056
-0.227455854 -0.038841553 -0.611044943
2.766944170 0.747916520 0.018600347
3.789067030 -1.853927374 0.084555417
-2.425266504 -2.645301580 1.328545928
-9.462034225 11.392889023 0.764109433
-9.475369453 11.423838615 0.766779959
-9.271165848 11.177595139 0.754091263
15.834872246 -1.130097508 8.648384094
3.596628189 -1.677359223 -0.082179442
-0.139959142 0.907885313 -0.509282589
-0.974909127 0.125510305 6.003417492
0.678990066 -0.504044116 3.539639473
3.735498190 3.479903460 0.235141784
-1.513739705 -0.498403609 -0.901819170
2.508303165 -2.652063131 1.276462555
2.532724857 -2.719203711 1.321423292
2.292499781 0.740830183 0.136891440
2.294005871 0.732877851 0.145332456
7.706144810 -3.252600193 1.750763178
10.228309631 -6.537190914 4.238463402
10.083913803 -6.452292442 4.151465416
9.963923454 -6.361091614 4.090699673
3.317608356 -3.109311581 1.625443578
1.046375513 3.245737791 -0.857457995
1.044930935 3.251379728 -0.856763363
1.034021735 3.314443350 -0.848499238
-8.936868668 6.970504284 10.874014854
-3.710536718 -7.169157505 9.398058891
0.820548534 -1.900524735 0.272694767
-1.612947106 0.160681769 0.868483782
-2.077381372 1.469163060 1.992097855
-1.629457712 -3.090722799 0.735926211
-4.371837616 -1.700293779 5.536181450
1.189922094 -1.453251362 4.396046162
1.287021160 -0.787990093 -0.201676652
-0.716213346 2.899310112 13.819148064
0.834509313 -1.631416082 -1.248136520
1.453150392 -2.828303576 -1.270544887
5.067818165 -1.968758583 2.881622314
1.120084047 -0.803725183 1.239519596
1.189874530 -0.564672709 0.019867506
1.306875944 0.830167592 -0.622542560
-1.713322043 -0.683892667 8.864862442
6.759722233 -0.976747394 11.227379799
