ply
format ascii 1.0
element vertex 741
property float x
property float y
property float z
end_header
-0.234521106 -0.490380585 0.677431345
-0.749775648 -1.029894590 0.985906541
1.456863165 -1.458629131 1.709638596
0.785494030 -0.698168814 0.909954786
0.534483492 -0.699763596 1.072959185
-1.038821101 -0.706639647 1.189200044
-0.567679703 -0.481003970 0.925968885
-0.909102917 -0.531146109 0.865076482
-0.550930321 -0.255895942 0.388928801
0.749947011 -0.569004536 1.339943647
0.721678913 -0.514178395 1.089651346
0.095290951 -7.504031658 6.807527542
1.002960324 -0.031524826 0.957484603
0.277730048 -0.855349183 1.350536108
1.349523664 -0.905553401 0.445515066
0.938873410 -0.488928884 0.833178043
4.833068848 -18.160377502 17.138547897
0.015966173 -0.606271923 1.071570158
-0.720295191 -0.818826258 0.955573499
0.146766081 -1.061083198 1.182715535
-1.984729171 -3.894927263 3.261590481
0.840860665 -1.020038247 0.377915025
0.515526295 -0.302549303 0.568197846
1.093877316 -1.361323357 1.300051570
0.718017161 -0.317950130 0.757974982
0.966202855 -0.618165016 0.873214245
0.384669274 -0.240842640 0.691767931
-0.630024612 -2.847356319 2.171640635
0.496253461 -0.155985489 0.855750024
0.556763768 -1.336966634 1.751846552
-0.464464188 -0.042151503 0.214698955
0.067888029 -0.188499346 0.444981962
-0.072795235 0.001539201 0.216936991
-0.117765605 0.017128510 0.169821382
0.065520622 -0.186502695 0.440806240
0.001739495 -0.104523316 0.346278191
0.003363529 -0.105027236 0.335650235
5.388058662 1.358355641 10.096442223
0.211898178 -0.054887097 0.518196166
0.173882902 0.117998064 0.854720950
0.299237490 0.057258785 0.816645920
-0.228617996 0.218742460 1.172048807
-0.021862807 -0.024880547 0.234025314
0.458717942 0.036207519 0.422423184
-0.604902923 -1.703822494 0.842575133
-0.602768660 0.042564031 0.204620197
-0.412301868 -0.676339209 0.799656630
-0.113128789 0.023602443 0.156395674
-0.303517640 -0.469488412 0.750132799
-0.558531940 -0.475084186 0.920460641
-0.941739321 -0.952666044 0.880384028
-0.378534794 -0.606422126 0.770866513
-0.039745640 -0.424122721 0.918402731
0.343263537 -1.131551385 0.803800523
0.712963164 -0.338483334 0.635638297
0.482721925 -0.537505388 0.862108648
1.032888532 -1.429934263 1.991157293
1.035859823 -1.190870285 0.876159549
-1.442793131 -1.794752002 0.839924097
0.313536316 -0.513514280 0.876240075
-0.463228583 -0.044653550 0.214553759
-0.294136852 0.263667196 0.158825561
-0.255899519 -0.545261025 0.708343327
-0.096517801 0.115769953 0.291166872
-0.230105504 -0.365085930 0.709712505
0.007866708 -0.459166318 0.657515049
0.101664387 -0.136106297 0.274600655
0.447084337 -0.278548241 0.782765150
-0.057251517 -0.025766091 0.174970090
-14.716583252 -3.712216139 2.388032913
0.710739076 -0.300133735 0.750001311
0.443320215 -0.263285458 0.484609693
-0.082896486 -0.002326542 0.208120912
-0.145493582 0.066412881 0.126982003
-0.116395958 0.042594042 0.160558775
-0.157663316 0.068387315 0.136096612
-0.024717536 0.000882036 0.213921219
-0.075840294 0.105196506 0.251412213
-0.025075790 0.000302761 0.213511348
-0.702289701 -0.616958439 0.757992804
-0.189473882 -0.478172749 0.687700748
0.060926247 -0.200280145 0.476765335
4.092889309 -18.139635086 14.756865501
-0.828681886 -2.404869080 1.526517153
0.746600926 -0.424364567 1.060722113
0.976020932 -0.164761826 0.764257789
0.362197578 -0.351734191 1.099467993
-0.732845545 -0.996863782 0.952607572
0.084779151 -0.860638738 1.131608486
0.226462007 -0.561128676 0.841341615
0.440003604 -0.592086494 0.835380614
0.653706968 -0.178632945 0.764515579
-0.699918866 -0.596247852 0.891028702
-0.432402968 -0.702226400 0.835747004
1.241599202 -0.818407238 1.126833558
0.520305693 -0.310691863 0.581491470
0.639554560 -0.635738611 1.016880274
0.560700297 -0.720035315 0.566722393
-0.063003667 -0.756405592 0.876127303
-0.600195050 -0.678032339 0.799104810
-0.746039689 -0.633155406 0.781536102
0.562014818 -0.071211644 0.739448965
-0.763339579 -0.513167977 1.080274940
-0.011350120 -1.000036597 0.095998898
-0.065594055 0.101901487 0.122927837
-0.072023161 -0.035082370 0.191636041
-0.118104510 0.003928940 0.194105431
-0.068376347 0.061653297 0.140977979
-0.018948896 -0.049366072 0.213084117
-0.246001080 -0.242248252 0.588193595
-0.027008682 -0.476171553 0.722170293
-0.106719725 -0.483127266 0.753028631
0.464179575 -1.153923512 0.403234690
0.375717431 -0.349251896 1.130045176
0.448499739 -0.611535251 0.855410635
-0.129983634 -0.506204605 0.662492096
0.409289747 -0.380728155 1.234490991
-0.085337885 -0.004121128 0.214488655
0.002267532 -0.103836395 0.348130882
-0.215516999 -0.482417107 0.699806571
0.451782644 -0.185626984 0.909987450
-0.021683702 -0.010858247 0.203102425
-0.171353549 -0.292128474 0.596888840
-0.746151805 -2.281669378 1.447658420
-0.313926250 -0.023067974 0.142672852
1.125155568 -0.760812759 1.027671218
-0.165621161 0.072861053 0.139395669
0.397070765 -0.101200283 0.197726771
-0.653027594 -0.125845119 0.451587170
0.531520009 -0.337787628 0.601603329
0.175309360 -0.019444812 0.195772722
1.114026904 -0.736841917 1.017116904
0.535096765 -0.330075413 0.602376580
0.830458105 -0.358404666 0.872176349
1.288566232 -0.359202087 0.823670447
0.758820534 -0.584703207 0.308936298
-0.020237122 -0.047883276 0.214199737
-0.134620458 0.159824118 0.179999143
-0.437239349 -0.020592541 0.163310722
-0.511458397 0.039853603 0.093637705
-0.447197199 -0.004950467 0.261908650
-0.150433555 0.068361484 0.128869459
-0.009764314 -0.045497205 0.191050991
-0.094437718 0.047481775 0.155654684
-0.019195490 -0.037692476 0.222055644
-0.321719557 -0.690921009 0.790383816
1.047106743 -0.716212571 0.353395581
0.471501470 -0.661281347 0.773170292
0.454905480 -0.117963478 0.945540786
-0.020209761 -0.526682556 0.868611574
-0.218281135 -0.221016109 0.533067465
-1.583896518 -2.542142391 2.182251453
-1.740431905 -1.717364907 0.995920599
-0.725836217 -0.126066402 0.481937438
-0.012279901 -0.120288834 0.353630394
-0.065579854 0.058879565 0.139218479
-0.269947767 0.027593885 0.033013612
0.338335901 -0.414407283 0.827434182
0.060143601 -0.029815409 0.300863504
0.670265257 -0.093894705 0.889140129
-0.540195167 -0.158979133 0.325762212
-0.033075962 -0.777889907 0.768503964
-0.803845346 -1.290938735 0.465054631
-2.782816410 -2.977159500 1.938530326
-0.836947918 -0.287640244 0.560064435
0.336435467 -0.419584781 0.852336705
-0.447224736 0.024575073 0.167710841
0.952325881 -0.834918797 0.495094568
0.385609120 -0.102613427 0.772972167
-0.564061582 -1.079582691 0.734705031
-0.087113321 -0.004713107 0.216140240
-0.037231304 -0.508618951 0.776285112
1.390767694 -1.134339690 0.612006485
1.223431349 -0.384599656 0.692587078
-0.135549903 -0.495930076 0.643715322
-0.060407467 -0.598524451 0.850146651
-0.025428548 -0.343874842 0.724301755
0.777799428 -0.374733388 0.712922871
-0.774560452 -0.160039708 0.669100463
-0.289250582 -0.406008691 0.825881779
-0.776091814 -0.289091080 0.542743325
-0.794064164 -0.165311784 0.687520325
-0.016935924 -0.032478426 0.208579510
-0.633797824 -1.776579976 0.864953101
-0.022590961 0.001448876 0.211641356
-0.492976218 -0.539442122 0.712042451
0.211545646 -2.433399200 1.562785745
-0.318063587 0.718292952 0.785760105
0.217488393 0.018667579 0.060489081
6.802335262 2.406098843 7.741221905
-0.168071717 -0.452851772 0.635390162
0.245199904 -0.579641104 0.880466044
0.542126596 -0.685590327 0.941404343
0.376505405 -0.386517793 1.143451691
0.579751909 0.183170676 0.565898299
0.067814581 -0.197271124 0.463463396
-0.005090923 -0.119960465 0.388557494
-0.066071674 0.094637945 0.236803949
-0.656319678 -1.947961450 1.243222594
0.704869568 -0.307375371 0.742530584
0.003146463 -0.103739768 0.340494573
0.449302316 -1.111779213 0.387587965
0.400087386 -0.382137895 1.200565219
-0.288222283 0.618670404 0.668258607
-0.283658326 -0.125211075 0.114697106
-0.253984600 -0.597396791 0.683684945
-0.263641536 -0.830113053 0.806252062
0.200731441 -0.397875071 0.664198458
-0.007074762 -0.030617464 0.187531099
-0.933860660 -0.552286088 0.754034936
-0.588650525 -0.608317792 0.854272544
1.249503016 -2.557453871 3.039533615
-0.398423731 -0.625022054 0.805653691
0.433726400 -0.590204716 0.818491459
-0.212345466 -0.543538153 0.622330546
-0.709795475 -0.599463105 0.743231118
-0.100467235 -0.512197852 0.699257612
-0.600993156 -0.054510254 0.395897746
0.472063661 0.149892047 0.512981415
-0.725138664 -0.632509053 0.781155050
-0.758563697 -0.642169476 0.976624310
0.450029075 -0.516937971 0.235004976
-0.115005061 0.022416327 0.168831214
1.105848074 -0.190655693 0.793093860
-0.000334088 0.193520948 0.239893287
1.686408758 -0.547229111 0.983039200
0.779459238 -0.208159864 0.401734173
-0.830255568 -1.331487298 0.474298477
-0.529944003 -0.552585006 0.766094863
-0.930961251 -0.231293991 0.474527389
0.950188756 -0.495284587 0.843443811
1.093740821 -0.190653726 0.863880694
1.250164747 -0.559885681 0.970962226
-0.831986129 -0.366696447 0.890523016
-1.615236878 -1.710180283 0.994617522
-0.483983815 -0.013677301 0.171202868
1.099117279 -0.400548607 0.808454335
0.212683722 0.068635397 0.524524331
1.145967245 -0.251099497 0.516307116
1.374907136 -0.781241477 0.183569089
1.172166348 -0.521758378 0.906757414
-0.923785388 -0.555606604 0.746355593
-0.571817338 -0.166739896 0.334491223
0.029551754 -1.107369542 0.368364364
-0.117077932 0.045668941 0.179088861
-0.998239875 -1.291155219 1.295470119
-0.011282970 0.005334301 0.017600844
-0.028872617 0.000459805 0.220567733
0.332928002 -0.493731856 0.841640174
0.652985573 -0.463265985 0.819900870
-0.334094644 -0.517080069 0.835259497
-4.023439884 -4.191239834 2.784449339
-0.088438012 -0.075266987 0.257043540
-0.069910631 0.046539683 0.153057352
-0.121869385 0.020794827 0.171681166
-0.300638527 0.183131665 0.207824990
-0.085132353 0.001069171 0.212879315
-0.956712365 -1.206038594 1.199261069
0.927877784 -1.149953485 1.257072687
0.858660221 -0.768910348 0.992686987
-2.315177679 -4.241303921 3.317308187
-1.790599704 -0.186249748 -0.015815170
-0.013674200 -0.047549628 0.004675840
-1.720881462 -0.984434068 0.959488809
0.026156001 -0.014378162 -0.001149620
-0.555583835 -0.059792548 0.444933087
0.080316484 0.005571538 0.542147636
-0.053850386 -0.022422068 0.175092757
-0.102176718 -0.090709060 0.320715725
0.224225909 -0.089813910 0.247117057
-0.083773918 0.069630422 0.505869329
-0.125326753 -0.091642387 0.339420944
0.034611594 -0.144438297 0.530140758
0.031161295 -0.017944738 0.581830680
0.037092786 -0.143677548 0.516015887
-0.039440177 0.043525126 0.423514575
0.000043111 -0.175237194 0.664715409
-0.396503657 -0.626002252 0.813709497
-0.610691130 -0.155844823 0.322684079
-0.097529963 0.048726734 0.159164920
-0.032004945 -0.363557905 0.339772642
-0.104343466 0.032280806 0.168793410
-0.584617019 0.010395072 0.463662773
0.341403514 -0.177740261 0.445909202
0.374348909 -0.098979004 0.754573703
-0.110816188 -0.487913400 0.774022698
0.352500021 -0.422302604 0.845415711
-0.768304706 -0.439080745 1.007302880
0.141728938 0.045944642 0.155863896
0.029286353 -0.147356093 0.577688575
10.456157684 12.442221642 16.408618927
-0.064698435 0.056472164 0.138861731
-0.239944652 0.583029091 0.148255005
0.449381858 -0.602749586 1.234219313
-0.285853118 0.654663324 0.202290431
1.443694234 10.658372879 8.209425926
-0.072719231 0.127720907 0.225164935
-0.173682228 2.028864622 -0.370737582
-0.079038680 -0.004798588 0.210537627
-0.885940313 -0.042385984 0.304423153
-0.504635155 -0.155422986 0.320696503
-0.080934994 0.256247997 0.492277771
-0.016158024 0.132344797 0.222026095
0.991649389 -1.202072978 1.345942616
0.050888527 0.045825496 0.185950235
-0.562214851 -0.475777835 0.918772876
-0.307715803 -0.581973970 0.776273251
-0.025982773 -0.488239020 0.741188645
0.032879282 0.145109087 0.206978202
-0.255319148 0.540693343 0.267253667
-0.039916199 0.318867326 0.326211482
0.035284664 0.078243718 0.164588869
0.163215935 0.091354698 0.777854383
0.339928567 -0.279700398 0.472639829
-4.745862007 -8.490036011 6.027820587
0.058587100 -0.191027418 0.458589911
-0.063012362 0.196543485 0.284854054
0.122899540 -0.620577097 0.847873271
-1.910717964 -3.126238108 2.419649363
0.596710026 -0.578463495 0.939842999
-0.092363045 0.058484323 0.165010855
-0.527229846 0.024944823 0.195410773
-0.122052923 0.034010891 0.151536748
-0.136335537 0.063021518 0.126896530
-0.112494104 0.028161628 0.152625829
-0.029891953 -0.057736997 0.228010595
-0.921241105 -1.242169619 1.261387825
-1.562718272 -1.319046259 0.706604421
-0.477065802 -0.410798639 0.933095157
-0.335985482 -0.303462297 0.124002002
-0.018958105 -0.103521369 0.345589697
0.632197618 -0.300021350 0.600984454
-0.402942598 -0.617868602 0.987699866
0.027675845 -0.592528760 0.841567218
-0.912592530 -0.764723003 -0.179249525
-1.267071724 -1.364376664 1.222228169
-0.459576190 -0.542362869 0.852210343
-0.278838724 -0.854603171 0.818380773
-0.823145390 -0.173235133 0.548009336
-0.121268727 0.019727055 0.168966010
-0.071545549 0.095783882 0.248141110
-0.092900492 -0.142925277 0.374834329
-0.789105773 -0.297746241 0.558853209
-0.081023805 0.103127405 0.268782884
-0.763994455 -0.157513022 0.670853674
-0.342316747 0.211128429 0.230743349
0.759697735 -0.368271649 0.691187918
0.111338302 -1.614211440 1.847221971
0.994526327 -1.068749905 0.824020207
-1.738277793 -1.856218934 1.069054008
-0.810756922 -0.782838583 0.957556486
0.055010777 0.282373995 0.609459758
0.016855605 0.040749900 0.402800351
-0.048428975 -0.067173406 0.226774812
-0.288139433 -0.162671775 0.770423889
0.022999879 -0.163412884 0.597928405
-0.065684728 -0.018107250 0.292629391
-0.025071621 -0.076852456 0.312235087
0.046723194 -0.024217738 0.312723994
0.466201335 -0.187905997 0.933385551
-0.117930755 0.013947184 0.191090822
-1.022735357 -0.601027966 0.809514344
-0.114293754 0.039292712 0.160555497
-0.593867064 -2.119270325 1.862632036
-0.759002686 -1.254639745 0.445480376
-1.627846360 -1.607873440 0.590102971
-0.165045381 0.073848151 0.133016750
-0.076868832 0.243731871 0.474120885
0.056566976 -0.111533687 0.413295627
0.001291966 -0.016212862 0.739000738
0.233045533 -0.550253510 1.030660748
0.479715556 -0.910609424 1.075766444
-0.156288072 -0.672918320 0.746163845
-0.083675578 -0.468163788 0.638808548
-0.253352463 -0.618146658 0.695735276
-0.074823305 -0.087084517 0.292135894
4.754973888 -26.110126495 28.715955734
0.679389894 -1.195159078 1.473921418
-3.173962116 4.681222916 -3.592665434
-0.060054138 -0.035945669 0.177785009
-0.080982208 0.146022007 0.229248911
0.008150143 0.201263681 0.252281427
-0.129888281 0.014145723 0.206435040
-6.706173420 6.038251400 -3.650758505
0.238248497 -0.582656801 1.309125423
-0.548805058 -0.054487929 0.219654366
-0.743010998 -2.145000935 1.370005727
0.598083258 -0.586529732 0.939324379
-0.131358191 0.061607115 0.124267340
-0.009498164 0.099311888 0.137463629
0.055599354 0.321727753 0.704968452
-0.586584449 -0.738833070 0.814872026
0.220148146 -0.880341291 0.618213058
-0.107595608 -0.097853176 0.426621765
-0.457526684 0.210948899 -0.078682929
-0.652620077 -0.029380741 0.409422934
-1.613960385 -0.978936195 0.714166284
-0.595617056 0.076863788 0.232139513
-0.737016022 -0.058251522 0.534040391
-0.539746583 -0.122667387 0.399922162
-0.982738316 -0.633792222 0.760919094
2.512353897 -4.453331947 3.926878214
-2.114826679 -3.071594954 2.163527250
0.629190207 -0.626875401 0.991917729
-0.102933556 -0.517535627 0.704990387
-0.953791261 -1.253720760 1.274781823
-0.794673681 -1.263792157 0.456732869
-0.809612215 -0.792811811 0.975933075
-0.540049672 -0.107022926 0.210751861
0.170798466 0.052082259 0.534881890
-0.993707657 -0.195163608 0.470495790
-0.249704570 -0.504315436 0.691484690
-0.084149927 -0.799549758 0.792032063
0.349453360 -0.485588551 0.745354950
-0.071002826 -0.427028120 0.804910779
0.146902680 7.005964279 5.697358131
0.280352116 -0.058812212 0.848282993
0.098824754 0.098521397 0.412660211
-0.201931104 0.453217447 0.227004379
-0.258606672 0.698945463 0.393006921
3.673840284 6.770121098 5.413255215
0.016298858 0.394719392 0.546737969
-0.035495181 -0.079726480 0.303784877
2.774604797 7.173671722 6.915480614
-3.924120188 3.131064653 13.772326469
0.169206172 -0.127737075 0.479698688
0.072844662 0.256109625 0.589574814
-0.020558279 0.114676498 0.145176351
-0.249973193 0.527369320 0.249531403
0.959437013 -2.669583321 6.033759117
-1.637461185 -2.752541542 2.137054682
-0.350333780 -1.033525229 1.025090694
-1.184990406 -0.663044274 0.876275778
0.032854069 -0.589840055 0.836255312
-1.677097082 -0.648884416 1.249257922
-0.907086492 -0.731065452 -0.164968133
-0.490786612 -1.872017503 0.423516661
-0.121289246 0.030814482 0.154716045
-0.676202595 -1.082935452 0.129496574
-0.544943273 -0.112593696 0.214732349
-0.189639717 -0.599149168 0.678121030
-0.095243596 -0.581521153 0.681591094
-0.464221299 -0.543082654 0.853129566
-0.569567561 -0.077924103 0.212498575
-0.627782464 -0.548110485 0.536996305
-0.391566008 -2.659550428 3.770095825
-0.592505217 0.049434312 0.211220801
-0.016036099 0.099772967 0.139792919
0.235249728 11.612438202 9.276750565
1.959709048 -0.025628585 6.779881477
0.331448227 0.197119430 0.307611287
3.967597723 10.943006516 13.199908257
-1.527759433 -0.735088229 0.366684139
0.603006303 -1.063202143 1.362199783
-0.832206309 -0.847777963 1.021551609
-0.562117279 -0.559245646 0.903376400
0.014064996 -0.022698354 0.661979616
-1.185799003 2.896481752 0.052211992
0.378038168 -0.469159871 0.952967167
-0.082496949 0.137782991 0.234378979
0.046547335 0.362595260 0.707792342
0.424565017 0.027323190 0.385087729
-0.123776861 0.060075831 0.124657236
1.789229035 0.285751760 1.840223908
0.604082227 -0.078812458 0.593438745
0.465676576 0.032490652 0.426449716
0.350268006 0.087419100 1.077600598
-0.067808837 0.128256097 0.220058680
1.194425464 8.799812317 6.718841076
-1.482357740 -1.214466572 0.060826976
-0.128991857 0.537282467 0.488422930
1.183142543 -0.412972510 1.287460446
5.671422482 6.006838799 6.778415680
0.091347754 -0.778375685 0.682856739
0.159924790 0.066925593 0.572712719
-1.767873764 -1.733300447 0.988006830
-2.051313400 -1.770185351 1.502763867
0.428152859 -1.053574085 0.368722916
-0.052264862 -0.557655692 0.792441308
-0.841230631 -1.326088309 0.158224940
-0.327026486 0.197650120 0.221917093
0.682730317 -1.049459696 1.211614370
0.713634193 -1.108652353 1.282133460
-1.597687602 -2.321151257 1.629541874
0.337721050 -0.321962923 0.997972727
-0.744712293 -0.057298865 0.466138929
-0.579551041 -0.049502745 0.382302821
-0.050260879 -0.133087859 0.372513920
-0.424280435 -2.161167860 1.150974035
-0.556467831 -0.105956256 0.216201052
-1.738196969 -1.998034596 1.686494946
-1.176150203 -2.734339476 2.061980963
0.571083903 -0.410025150 0.970498919
0.651663601 -0.309636295 0.617204189
0.098058186 -0.971732616 0.116478473
-0.248550177 -0.793639421 0.763512433
-0.764736295 -1.224632502 0.156517670
-0.289890468 -1.134516716 0.364706933
0.673213184 -0.321675181 0.639991045
0.028281290 -0.105855204 0.559550047
-0.068673737 0.060659025 0.141466260
-0.099316634 -0.101847336 0.328310072
-0.772063315 -0.648624778 0.997652650
-1.302660227 0.152188063 0.281576097
-7.844784737 1.019384623 1.545029998
-0.063007288 -0.759529531 0.872943163
-0.927351594 -0.791116834 0.061524522
0.203276217 -0.466170728 0.721752524
-0.075383194 -0.026178507 0.189892128
-0.026215641 -0.513024151 0.815325856
-0.621330261 -0.277967483 0.412177086
-0.626421392 -0.483492911 0.934607565
-0.578774273 0.063092694 0.168696076
-0.607760370 0.064153306 0.172939375
0.424272805 -0.803159952 0.587746561
0.486006409 -0.516786754 0.763924539
0.302317619 -0.399223894 0.181914002
-0.341842204 -1.796098948 0.943731904
-0.665366828 -3.079809189 2.332210541
-0.646965981 -1.808369398 0.888535321
1.032248139 -0.687803388 0.890928805
0.457463861 -0.232130364 0.608624935
-0.515914083 -0.448371917 0.865930974
-0.490266234 -0.418378353 0.932428479
0.193550780 -0.218654305 0.111131325
-0.215162158 -0.498011053 0.729662776
-0.394812822 -0.351595968 0.803840518
-0.483478785 -0.051268246 0.218552530
0.183087185 -1.204328418 0.422892928
1.147833228 -2.510113478 2.881433010
-0.048165351 -0.052395754 0.243512303
-0.143505827 -0.529106259 0.689958036
-0.267434150 -0.649450541 0.727481902
0.054552063 -1.061410546 0.726264060
-0.000915616 -0.581481338 0.839115500
0.264319181 -0.554350436 0.921667039
-0.616962612 -3.089314461 2.333832741
-1.719240665 -2.113128185 1.012905240
-0.016387863 -0.022486648 0.225763306
0.237714991 -0.276000291 0.134510964
-1.796608448 -1.574732900 1.339893341
0.038966414 -0.072281472 0.029347124
-0.009720146 -0.032667812 0.031467330
-0.043768931 -0.087207250 0.010009807
0.057196893 0.010313855 0.032931283
-1.673384905 -1.288079381 0.710018814
-0.499988586 -0.808726966 0.089303479
-0.561414599 -0.124466889 0.224410519
-0.885919571 -0.210027158 0.681732476
-0.838857651 -1.193449497 0.088960730
-1.656879306 -0.713331103 0.547250807
-1.627650738 -1.601480365 1.079849601
-0.459251046 0.213534817 -0.081050187
-0.748852611 -0.841408074 -0.284513772
-10.159373283 -2.157171249 1.179069281
-0.694281876 -0.270032674 0.511544406
-0.664171815 -0.819310665 -0.585905790
-0.894290864 -0.260301054 0.179332882
-0.535747945 -0.638999283 0.740913808
-1.857522011 -2.006398678 1.560243845
-0.134545743 -0.331034034 1.471905947
-0.010177452 0.016522655 0.121824361
0.987150967 6.630163670 5.145143509
0.078346781 0.214230806 0.510465384
0.571730077 -0.271270543 0.532389820
0.504166901 -0.162686780 0.893577039
6.486720562 1.684740901 13.187160492
-7.333970547 -1.166487694 3.675307274
-0.110405587 0.016770432 0.164864078
0.184234887 -0.699021399 0.496263117
-0.147126377 0.067822672 0.126697168
-0.654645801 -0.043013167 0.415421158
-1.758459210 -1.309108257 0.711908400
-0.060812972 -0.756564498 0.881408930
-0.674329221 -0.264955401 0.489301950
0.925492823 -1.978352070 2.320439816
-0.073348962 0.057715673 0.137107953
-0.479488611 -0.152325734 0.311634660
-0.615504742 0.040597957 0.209196121
-0.061569810 -0.039179564 0.183976948
0.054810960 -0.106994487 0.424593896
0.014534594 -0.011793855 0.655506551
-0.006340560 0.079458520 0.048105929
-0.039171800 0.041916791 0.422219664
0.014067957 -0.163158938 0.608799458
0.046764478 0.183915183 0.492393851
-0.523030877 -0.244514123 0.374566436
-0.039240029 0.041474152 0.421633720
0.027344117 -0.157943055 0.561957955
-0.081262730 0.023680024 0.160657197
-0.088287249 0.031591125 0.152834237
-0.340295792 -0.049011521 0.188515395
-1.615019560 -1.472042322 0.974950850
-0.486616611 -0.180176631 0.305643827
-0.253984600 -0.696431816 0.768469393
-1.728029013 -0.914653659 0.591943681
0.037101462 0.095021538 0.124426737
-0.458498389 -2.121946573 1.377238274
0.037813365 0.096807368 0.126048267
-0.661735535 -0.643285453 0.412718743
-0.071428433 -0.230157539 0.104849949
-0.143781155 -0.250709206 0.011068413
1.036132574 -3.472536564 4.106470108
-1.145088196 -1.226993442 0.892409861
0.292337716 -2.434162378 2.661434174
-0.057708181 0.050157789 0.132479012
0.058875125 0.232113868 0.481095999
-1.639002085 -1.717281580 1.542160749
1.435016394 -0.647072971 0.901263475
1.310022831 -2.840905905 2.593466282
-0.735803783 -1.063016772 0.084251560
-0.970336616 -0.414446473 0.936824799
0.006936730 -0.915221930 0.078785837
-0.004469571 -1.011080623 0.086060837
0.210137933 -0.283456206 0.136092648
-0.768613219 -0.426875979 0.387535036
-0.021734662 -0.076649696 0.305812687
-0.586987257 -0.087741330 0.261802137
-0.623169363 0.015439475 0.343706995
-0.120244771 -0.096774541 0.342858344
-2.845088720 -6.158159256 5.299114227
0.126827061 -0.469675452 0.344688088
-0.170092270 -0.434292048 0.652748466
-0.117797434 -0.610664010 0.678012848
-0.022480832 -0.495328635 0.801069140
-0.508488536 -2.486818552 1.297461152
-0.066469863 -0.200161308 0.146801278
0.059688345 -0.073616721 0.046737656
-1.109800935 -0.446408898 0.878869474
-2.025431871 -1.695938230 0.945406437
-0.577980876 -0.078418471 0.211767599
-0.178251937 -0.576091588 0.633348405
-1.024290204 -1.627128959 0.997424543
-0.732527792 -2.636413813 1.596037149
-1.761488676 -1.502543688 0.831443250
-0.068218812 0.054784235 0.135896042
0.026825149 -0.155840486 0.598286510
0.225359201 -0.506806850 0.781116188
-0.486634076 0.994861782 0.223267406
-0.027433101 -8.862042427 5.792083263
0.158205926 0.066954382 0.557512105
0.272975445 -0.027786499 0.624936819
0.085373096 0.094332352 0.440041751
0.090229124 -0.001601737 0.030030502
4.575615406 1.184936643 10.709886551
0.207973316 0.161771879 0.954639673
0.451501340 -0.063063793 0.415372431
0.041549232 0.343548894 0.733211637
-0.044612523 0.086790718 0.592605472
4.732411861 1.224979043 10.548250198
0.108155876 -0.002982698 0.261110425
-2.573063135 -1.053873777 -0.158438966
-1.686453938 -0.815683305 0.417078406
-2.398973465 -0.991859853 -0.146970540
-0.138197452 -0.600096226 0.668667436
-1.516232133 -1.203765750 1.080021262
-1.724833608 -1.355109453 0.754421651
-0.776414990 0.428845137 -0.034143310
0.143459484 -0.055485282 0.385197312
-0.778710246 0.134910628 -0.007617817
-2.039899349 -0.951106250 0.470702410
-0.735619128 -0.624454260 0.770267725
-2.041532516 -1.558277845 1.022588134
-0.812279701 -0.247541904 0.572333813
-1.789040446 -1.018613577 0.995158255
-2.389074087 -0.963233054 -0.147130847
-0.034715243 -0.030544428 0.001144653
-1.725319982 -1.011126399 -0.227069363
-1.359889388 -0.817140281 -0.175380543
-0.246565342 -0.517447054 0.669938147
-0.507300138 -0.645954669 0.720173478
-0.240745351 -0.110825732 -0.017323416
0.044316661 -0.056635704 0.487352818
0.023787968 -0.046625301 0.441528708
-0.245755479 -0.606172264 0.682101488
-0.514786482 -0.653962076 0.719939709
-1.487499237 -0.885223329 -0.190333754
-0.073789418 -0.082550183 0.307284087
-0.066974677 -0.133880541 0.348668694
-1.284287691 -0.200552180 -0.150652155
-1.096261501 -0.593833923 0.679604888
-0.853732049 0.390390009 -0.045991413
-0.089435861 -0.493407965 0.674923956
-0.169684276 -0.561835647 0.737394333
-2.064781904 -0.961697340 0.472084045
-0.797428727 -0.654514492 -0.141715139
-1.641676784 -0.809561372 0.416016161
-1.366739035 -1.130159497 0.954799175
0.003172700 -0.102627218 0.351408452
0.047058377 -0.137724325 0.482146531
-1.534684777 -1.629793525 0.528683901
-0.051542193 -0.765061855 0.894621074
-1.736605883 -1.221661091 0.391720563
-0.607801676 -0.669755101 0.765834928
-1.811644316 -2.903747320 2.226766586
0.004939964 -0.024637122 0.168282777
-0.867436945 -0.719924331 -0.159985721
0.374918669 0.095151499 1.131621122
1.685946465 1.764618993 1.752786756
1.004472136 3.922575235 4.874046803
0.754414439 -2.564482927 3.947063923
-1.333673835 -0.656066000 -0.391856372
0.502635241 -0.426026642 0.705317914
-0.197750762 0.565542281 0.421765804
0.330509812 0.196753874 0.306308836
-0.319353908 0.531601667 0.090574853
1.524750233 12.213688850 12.721554756
0.202447191 0.373892128 0.203223854
-0.952838182 0.433955431 -0.051502362
-0.898303092 0.410792172 -0.037482351
-1.739542603 -0.838409007 0.428915262
-0.032351166 -0.017262878 0.246488541
-0.634749591 -0.570215762 0.658074200
-1.677379847 -2.292485714 2.042121887
-0.042128552 0.186623991 0.268673271
0.026848381 -0.046868149 0.427745104
0.314316332 -0.078570023 1.056756854
1.247104883 -2.243397951 4.617970467
-0.068047866 0.058109820 0.140172139
-0.060707491 -0.036022965 0.178546235
-0.437529355 0.342080861 0.040092263
-0.007191814 -0.032609653 0.031627402
-2.882397175 6.412382126 5.295149803
0.063934878 -0.090170875 0.379587471
-0.743246257 -0.840462565 -0.282422304
-0.521677315 -0.087000266 0.246745944
0.025738161 -0.017966703 0.607483804
-0.925850868 0.423733324 -0.045356154
0.007287466 0.050373562 0.011400832
-0.019976936 -0.048209332 0.213972420
-1.720848441 -0.838530779 0.426679552
-2.084817886 -3.241743326 2.924929142
-0.663507402 -0.495203495 1.053278089
0.375956118 -1.409513235 1.613198519
0.169069588 -0.085806794 0.142302290
-0.276818484 -0.568470359 0.738367617
-0.070408024 -0.019317364 0.183944076
-0.460234731 0.055864885 0.221094385
-1.496736169 -0.888712049 -0.193389490
-0.091508098 -0.088696882 0.305820137
0.386243105 -0.347037524 1.137181282
