ply
format ascii 1.0
element vertex 1281
property float x
property float y
property float z
end_header
-0.002290544 -0.004866616 0.002015585
-0.001178249 -0.001232670 0.001487017
0.002568837 -0.002662922 0.001500933
-0.001830951 -0.001054306 0.001228415
0.001845210 -0.000859335 0.002053786
0.000151209 -0.000013204 0.000566239
0.001832850 -0.000839935 0.002014955
-0.002008776 -0.000482055 0.001498616
-0.001129025 -0.001256257 0.001385212
-0.001276430 -0.001339425 0.002040807
0.002549394 -0.002690359 0.001506452
-0.002999113 -0.004637866 0.002336576
-0.002231503 -0.001929551 0.001715220
-0.002260435 -0.000827419 0.001116299
-0.000017611 0.000077043 0.000398110
0.000075416 -0.000391879 0.000693866
-0.001997041 -0.004350123 0.001837253
0.000108693 -0.000072683 0.000620201
-0.004465650 -0.002559211 0.001129623
-0.002713595 0.000396904 -0.002632782
-0.003321199 -0.005924008 0.003801773
-0.002484796 -0.003926924 0.002018083
-0.002472188 -0.003859595 0.001992351
-0.001488137 -0.001115567 0.001372652
-0.000050356 0.000209488 0.000299712
-0.000434979 0.003185441 -0.005171468
0.003356733 -0.000429887 -0.000986727
-0.001773409 -0.001006939 0.001481668
-0.001191339 0.000125459 0.000631821
0.000439668 -0.001175133 0.001985907
-0.003963162 -0.002942026 0.002012844
0.000095843 -0.000293750 0.000837937
-0.001050563 0.000401798 -0.000005278
-0.005420949 -0.004814816 0.002597042
0.000834129 -0.001609938 0.002225259
0.005071588 0.000863626 -0.000044658
0.004889865 -0.001978433 0.001104697
-0.000603242 0.001276611 -0.000565435
-0.001106715 0.000951246 -0.000991108
0.000003506 0.000118550 0.000384229
0.005862970 0.003801908 -0.004617526
0.001558650 -0.001831535 0.002125577
-0.000589416 -0.001004883 0.001335691
-0.001920487 -0.002326363 -0.000177213
-0.001178134 -0.000138234 0.000500380
-0.001161882 -0.001114443 0.001165295
0.001158727 0.000569886 -0.000049745
-0.000145938 0.001128943 -0.000755066
-0.003551702 -0.000916602 -0.000018546
0.000094551 -0.000287259 0.000834806
0.000004967 0.000101171 0.000412441
-0.003856469 -0.003222809 0.000832225
-0.005925246 -0.008179769 0.002677968
0.002521237 -0.004596076 0.003022721
-0.004938751 0.000944144 -0.003597675
0.000382601 0.000089504 0.000450891
0.004994004 -0.001923114 0.001767609
0.001287154 0.000044181 0.001465064
0.000564547 -0.001560708 0.001919593
-0.000892553 -0.008182562 0.006900125
0.000378612 -0.001318261 0.001951197
-0.003500280 -0.002399900 0.001782958
-0.002798079 -0.004868786 0.002372150
-0.002176136 -0.002428310 0.000434967
-0.000676556 -0.004071638 0.002324273
0.000132164 -0.000137710 0.000547095
0.000208565 -0.000050698 0.000368802
-0.000657543 -0.001210850 0.001464401
-0.001526902 -0.000653624 -0.001846501
-0.001175307 0.001377642 -0.000331145
-0.003989356 0.000297492 -0.002568271
-0.005080998 0.000963045 -0.003751661
-0.007608442 -0.001720721 -0.000344845
0.000846358 -0.002087041 0.002122063
0.003809119 -0.001244762 -0.000330868
0.001876735 -0.001548865 0.002176201
0.016761627 -0.001182855 0.005785603
0.001303926 -0.001089513 0.001718569
0.001070269 0.000963307 -0.000153477
-0.002274053 -0.000513627 0.001486365
0.001205277 0.000060113 0.001448608
-0.003017138 -0.005524242 0.003556352
0.000049995 -0.000051435 0.000452685
0.000113072 0.000157082 0.000375520
-0.001055657 -0.000349082 0.000800665
0.000005007 0.000096964 0.000366651
0.002766096 -0.002326850 0.000934549
0.004066928 -0.001837287 0.001753633
0.005316406 -0.001579790 0.000671357
0.000021809 -0.000073312 0.000488931
0.001221396 -0.001447092 0.001981152
0.001507714 -0.002036168 0.002312029
-0.001074753 0.000002339 0.000249557
0.000884665 0.000371678 0.000872605
0.000341470 -0.000069596 0.001054252
0.001619832 -0.005534560 0.004431937
0.000107523 0.000163926 0.000377452
0.002639325 -0.006247761 0.005493587
-0.003451298 -0.003871482 0.001739069
-0.000823041 0.000172016 0.000210623
0.000363559 0.000303361 0.001160094
-0.003410066 0.000338600 -0.001367273
-0.001067052 0.000074094 0.000245600
-0.000046894 0.000208876 0.000299908
0.000056050 -0.000211221 0.000763401
0.000186405 -0.000103324 0.000394104
-0.000471380 0.001922980 0.000237957
-0.000004219 0.000006729 0.000526820
-0.005184487 -0.000280440 0.001752519
0.001152631 0.000002617 -0.000485742
0.004148941 0.001679929 -0.003018898
0.000049538 0.000105142 -0.002058798
-0.001169736 0.001696757 -0.001502300
0.000886212 -0.000036524 0.000719649
0.127749935 0.759204149 0.692966223
0.053645466 1.142708659 1.028046012
0.000434708 -0.001176665 0.002005975
-0.000011264 0.001040612 0.000567278
-0.000008249 0.000118101 0.002580772
0.168904081 -0.014399653 0.910217524
-0.000125727 -0.000331415 0.000858627
0.000065354 0.000004656 0.000447608
-0.003633552 -0.005195105 0.004323740
0.000207942 -0.000144796 0.000491305
-0.001104380 -0.002578810 0.000533683
-0.002628902 -0.001866888 0.000917911
-0.004551771 -0.003255405 0.002874607
0.000364344 0.000151869 0.000428495
-0.005438140 -0.002047252 -0.000259613
-0.000975437 0.001197276 -0.001430083
-0.000147312 -0.000326386 0.000843981
0.000126261 -0.000147636 0.000553787
-0.000989311 0.000507702 -0.000171755
0.000033646 -0.000163990 0.000565038
-0.000006303 0.000180063 0.000297628
-0.169110313 0.014186801 0.414893210
-0.003783685 -0.002851040 0.000570184
-0.003780359 -0.001197687 0.000676188
0.000115698 -0.000080429 0.000617634
0.000004810 0.000086845 0.000370215
0.000347477 0.000343607 0.001239307
0.001329941 -0.001097548 0.000393158
0.000909217 -0.000434529 -0.000020773
0.001272049 -0.002416717 0.001584558
-0.000296422 0.000165943 0.000771776
-0.004495129 -0.005031710 0.002724222
-0.000000902 0.000078324 0.000387424
-0.001896219 -0.001436069 0.001537072
0.000573829 -0.009891143 0.008060545
-0.000566702 -0.000205991 0.000498129
-0.001787206 -0.001020030 0.001518919
-0.003929255 -0.004216244 0.002708806
-0.001214666 0.000180731 0.000624743
-0.000518046 -0.000144562 0.000405230
-0.000068742 -0.000445497 0.000840292
0.005302435 -0.000763181 0.000663870
-0.000916180 -0.000110107 0.000605286
-0.000306800 -0.000775464 0.001506384
-0.002198203 -0.000661330 -0.001376331
-0.004641660 -0.000933037 -0.001463705
-0.000808172 0.000084297 0.000305074
-0.908051729 -0.255089194 0.262915045
-0.005012115 -0.002320814 0.000582995
-0.004647235 -0.005144580 0.006293630
-0.000026986 0.000134980 0.000394082
0.000199109 -0.000082515 0.000476885
-0.001205334 0.000142868 0.000635475
-0.000761686 0.000083323 0.000302890
-0.000918331 0.000385285 -0.000099613
0.002038032 -0.004222273 0.003092541
-0.005101621 -0.003513633 0.001608320
-0.000566133 -0.001174556 0.000830090
0.001350698 0.005910224 -0.007558253
-0.002755607 0.001772817 -0.002441113
-0.021513876 -0.004348619 -0.001110241
-0.000148321 -0.000327925 0.000846128
-0.002677046 0.001364494 -0.002743834
0.000117718 -0.000076914 0.000622843
-0.000149866 -0.000323172 0.000847150
-0.003785218 -0.001840439 0.000466024
-0.003150414 -0.002261475 0.000336425
-0.000932709 -0.001665095 0.001474766
-0.001195183 -0.000343016 0.000599727
-0.008565251 -0.008738152 0.005520364
-0.001639026 -0.000048941 0.001101801
0.000641270 -0.001825089 0.001927488
-0.002279097 0.000715825 0.000247527
-0.026911711 -0.021863231 0.021501556
-0.000814450 -0.000084711 0.003515770
-0.003687657 -0.002629434 0.001013262
-0.001994096 0.002721696 -0.004986662
0.003593992 0.001969620 -0.003194753
-0.003477074 -0.001100793 0.000403974
-0.003558256 -0.000928728 -0.000042732
-0.000304870 0.000106158 0.000248422
-0.001795331 -0.001152768 -0.000848513
0.000111453 0.000039645 0.000341388
-0.005542718 -0.001959199 0.005017017
0.000376556 0.000173670 0.000410189
0.000035156 -0.000338771 0.000890736
-0.005807242 -0.001458677 -0.000932952
0.001109846 0.000499077 -0.000006852
-0.001697826 -0.000312012 -0.000121516
-0.000081551 0.000328180 0.000338167
-0.009204570 -0.110011965 0.113819800
-0.190900579 -0.150667548 0.114244334
-0.002008410 -0.002214282 -0.000369420
-0.000124068 -0.001129580 0.001461897
-0.001477098 -0.000316524 0.000705361
-0.000012424 0.000068157 0.000396116
0.000032243 -0.000041221 0.000459886
0.000421894 -0.001174384 0.001995876
-0.000022542 0.000436307 0.000665807
-0.005291769 -0.007458861 0.005415217
0.000141714 -0.000114559 0.000565076
-0.004871576 -0.008692102 0.005483290
0.000090408 -0.000291255 0.000839903
0.003069918 -0.001384804 -0.000000719
0.004354019 -0.000040941 0.000079933
0.000584288 -0.002666836 0.000915738
-0.002831831 -0.001967571 0.001508092
-0.000108881 -0.000292365 0.000859534
-0.005000626 -0.003903797 0.001075207
0.000959616 -0.000197104 0.000971249
-0.049681071 -0.022503246 -0.023931399
0.026873216 0.029898917 0.857972562
-0.004984675 0.006555850 0.054813765
-0.005046609 0.006694132 0.050638530
-0.001202617 -0.002055048 0.002788466
-0.012062641 -0.046922043 0.026790533
0.000108199 0.000153706 0.000373868
0.010088534 -0.008007377 0.012195990
0.000342787 -0.000068978 0.001054123
0.000449332 -0.000309781 0.000767432
0.000018232 0.003171240 -0.003474044
0.000273135 -0.000750438 -0.001501889
-0.004374125 -0.001824492 -0.000131193
-0.002134553 -0.002414241 -0.000293388
-0.001747938 -0.000010817 0.005803738
0.000134374 -0.000085348 0.000593400
-0.003318214 -0.001038397 0.005164322
-0.002730874 -0.001098585 -0.001085536
-0.003543944 -0.001232907 0.001005182
-0.003780524 -0.001272971 0.001030412
-0.002073180 -0.003392020 0.001238336
0.000628092 -0.001795607 0.001901001
0.000143190 -0.000014560 0.000557986
-0.000438864 -0.000525004 0.000815163
-0.227392703 -0.106807940 0.497580886
-0.001620489 -0.001916251 0.001942975
-0.003608183 -0.002459164 0.000229668
0.001187734 -0.000558339 0.002062131
-0.317457408 0.095797129 0.003698208
0.000409714 -0.001801264 0.001952499
-0.001291267 -0.000891956 0.000742429
-0.002539725 -0.001525784 -0.000541836
-0.001521849 -0.001020973 0.001607327
0.000011422 -0.001827020 0.002481039
-0.132681727 -0.026718521 0.012013854
-0.000830210 -0.001090513 0.001403237
-0.002867184 0.001895423 -0.002087921
-0.000116723 -0.000201074 0.000719744
-0.015371424 -0.067209050 0.570347250
0.002419977 -0.003166063 0.001838653
-0.000443863 0.001071216 -0.000744358
-0.003233599 0.000498266 0.000604483
-0.001083818 -0.000080208 0.000425485
-0.004638354 0.002306730 -0.002847094
-0.001526760 -0.000637180 -0.001901336
-0.001955679 -0.002348162 -0.000204664
-0.003113854 0.000250623 -0.001195235
-0.002956864 -0.000930241 0.000974164
-0.000849724 0.000421333 -0.000026038
0.000037681 -0.000943330 0.001851476
0.002074830 -0.000339773 0.001968109
0.000442869 -0.000968596 0.002069517
-0.000050714 -0.000047566 0.000539015
-0.012653243 0.037665769 0.004218476
-0.232444897 0.181035310 -0.079703778
0.001317439 -0.001099763 0.001728289
0.002524947 -0.000003052 0.000960831
0.029280063 -0.002222585 0.006122380
-0.000991142 -0.005029804 0.006747631
0.000635800 -0.002099665 0.002211152
-0.001340808 -0.000755855 0.001825546
-0.001818353 -0.000777390 0.001764754
0.000191315 0.000914729 -0.000496658
-0.001451415 0.001594059 -0.000757284
-0.000001642 0.000636365 -0.000346561
-0.001361270 0.000183458 -0.002206583
-0.000374856 0.001067918 -0.000738643
-0.001666291 -0.001591799 -0.001179166
-0.000113476 -0.000202269 0.000719922
-0.001453174 0.001389855 -0.000411583
-0.002721017 0.000435788 -0.002656638
-0.002802065 0.001595092 -0.003244833
-0.000612537 0.001155991 -0.000837177
-0.000648867 0.001317616 -0.001130733
-0.002679832 0.001717939 -0.001953549
0.006371109 0.004922016 -0.004569493
-0.003088993 0.001143648 -0.001492314
-0.001246636 -0.000953252 0.001015680
-0.004706640 -0.000910526 -0.001485153
0.000164589 -0.000080894 0.000488629
0.001147515 0.000051853 0.001462134
-0.001824816 -0.001022603 0.001229756
-0.001288984 -0.011533682 0.009948376
-0.000442602 -0.000406231 0.000556295
0.001775235 -0.001807518 0.002793386
0.001063856 0.001216951 -0.000593757
0.000098784 -0.001365215 0.002222685
0.001656275 0.001234505 -0.003069516
0.003328355 -0.000659992 -0.000764129
0.002450847 -0.000469432 -0.001197365
0.005711043 0.003712564 -0.004545414
0.002689278 0.000149571 -0.001238608
-0.000050545 0.000209290 0.000297296
0.000350951 0.000135555 0.000483322
-0.003025524 0.000860981 -0.001706640
0.000143921 -0.000013919 0.000560095
-0.003572395 -0.000956267 0.000003205
-0.004345212 -0.004302231 0.002690935
0.000413727 -0.001709424 0.001831378
-0.004397678 -0.006332975 0.002109288
-0.010641742 -0.033736538 0.044284455
0.002403837 -0.003518700 0.002111398
0.020543026 -0.000220624 0.007986921
-0.005986219 -0.001561551 -0.001053744
-0.003461964 -0.000914842 0.000066142
0.016859906 0.000032170 0.006238639
-0.000123143 -0.000230203 0.000748458
-0.001995559 -0.001202882 -0.001122803
-0.001023963 0.000928512 -0.000911040
0.000007336 -0.000047307 0.000563088
-0.000350854 -0.000442493 0.001124018
0.002732252 -0.000147206 0.000085461
0.000206315 -0.000084231 0.000571019
-0.001898608 -0.000264689 0.000088811
-0.001328065 -0.000529995 -0.001932088
-0.000985307 0.000845431 -0.000877053
-0.001776545 -0.000294473 0.000094625
0.000006973 -0.000195107 0.000511019
0.000030868 0.000098913 0.000378263
-0.002036536 -0.000534134 -0.002839821
-0.002914197 0.000084860 -0.002431931
0.000035083 -0.000310870 0.000858130
0.000119909 -0.000080328 0.000625326
-0.006256853 -0.002817831 0.000008814
0.000788225 0.000478320 0.000529043
0.000184338 0.000905207 -0.000500539
0.001805638 -0.000439544 -0.001320476
0.000130721 -0.000550148 0.001128917
0.001298079 0.001090409 -0.000904286
-0.000830200 0.001783974 -0.003837647
-0.002352308 0.000139876 -0.000922941
-0.000896114 -0.007885369 0.006741156
-0.000750082 -0.001090923 0.001350816
-0.007812492 -0.005575703 0.002469047
-0.005388829 -0.000087490 -0.002422993
-0.004906723 -0.002174370 -0.000215578
-0.000461034 -0.000382456 0.000613143
-0.000094126 0.001330769 -0.000922373
-0.003051996 0.000181317 -0.001780582
-0.004805687 -0.000918810 -0.001520643
-0.021808101 -0.002840956 -0.004933530
0.000287298 -0.000749281 -0.001457721
-0.001853884 -0.000551517 -0.002493495
0.002170801 0.000469704 0.001195801
0.001937069 -0.000670054 0.002001177
-0.000643878 -0.001253124 0.001259217
-0.001047973 0.001172968 -0.000837884
-0.001319540 -0.000532900 -0.001893627
-0.001897701 -0.002128354 -0.000349517
-0.001208945 -0.000106913 -0.002100939
-0.000007977 -0.000321300 0.000866373
-0.001331676 0.000150522 -0.002071212
-0.002048415 -0.000481057 0.001505533
-0.001047245 -0.007958414 0.004791864
-0.001345516 0.000161863 -0.002128947
-0.001092948 0.001110975 -0.001257630
-0.002088035 -0.001870998 0.001555785
-0.002358846 0.000200440 -0.002402261
0.001128954 -0.001580524 0.002315534
-0.001236869 -0.001768457 0.001841713
-0.000461229 0.002522898 -0.001940117
-0.001619130 0.004190669 -0.005621522
-0.004799802 -0.000420992 0.000692139
-0.002493181 0.001464888 -0.002776929
0.002032831 0.000605009 0.000867533
0.008784284 -0.002401802 0.002698362
-0.000392078 0.003274275 -0.005307220
0.001877447 0.001372451 0.000196778
0.000590721 -0.002716099 0.000932996
0.014246454 -0.000708713 0.002973497
-0.000121993 -0.000193147 0.000712410
-0.000989396 0.001488393 -0.000454575
0.000423946 0.000384809 0.001005642
-0.000634271 -0.001212282 0.001262528
0.002115040 -0.000519096 0.002229183
-0.002837514 0.000012579 -0.000691555
0.002955930 -0.001539176 0.000232768
-0.000026133 0.000071533 0.000387505
0.003742097 0.001475499 -0.002653916
-0.000721359 0.000563750 0.000533210
-0.001042042 0.002260534 -0.002686624
0.004988787 0.003836532 -0.003390061
-0.000636129 -0.000936320 0.001280485
0.000873125 0.001213243 -0.000616602
0.005504633 0.011931515 -0.011804095
0.000006033 -0.000112973 0.000538998
-0.000145403 -0.000329863 0.000845803
-0.004559874 -0.001084153 0.000499208
0.001056718 -0.000786817 0.002044847
0.001120921 -0.000883769 0.001683374
-0.000519609 -0.001184026 0.001485364
-0.009072915 -0.000253815 0.000357880
-0.001389464 -0.000538721 -0.001996041
-0.012596938 -0.018070629 0.016799279
0.000042293 0.000497571 -0.000211977
-0.001633854 -0.000307626 0.000871668
-0.002806034 0.000492588 -0.002797402
-0.002479380 0.001163401 -0.002807055
0.000087920 -0.000284898 0.000837294
-0.002545195 -0.001968348 0.001101830
0.001254848 0.000730405 0.000034564
-0.002700296 0.001150384 -0.003570243
0.000866963 0.000462484 0.000789084
0.000427443 -0.001199689 0.002063290
0.003424391 -0.000103314 -0.001124739
-0.001154096 -0.000086678 0.000437087
0.001046314 0.000792892 -0.000020123
0.000082573 -0.000272056 0.000807842
-0.000872683 0.001733599 -0.003703887
-0.000990098 -0.000041423 0.000339025
0.003340204 0.005933618 -0.007370392
0.002135890 0.000390179 0.000402033
0.002443192 -0.003424825 0.002043975
0.066763349 -0.000633594 0.001542510
0.006046842 -0.002480115 0.002166072
0.002312247 -0.000387577 0.000460288
-0.000858121 0.001030595 -0.000844366
-0.002541390 -0.001561914 -0.000538005
-0.000947762 0.001149090 -0.000995153
0.000987599 0.000168938 0.000369609
-0.003427761 0.000570917 -0.001767768
0.000159376 0.000870184 -0.000484445
-0.001368441 -0.000574759 -0.001941149
-0.000972575 0.000975935 -0.000933818
-0.000895686 0.001057166 -0.001020501
0.000094083 -0.000286563 0.000835973
-0.000961334 0.001196363 -0.001011536
0.001289058 -0.000121553 -0.001666529
-0.001625040 -0.000338660 -0.000057254
-0.000454769 0.003090436 -0.005013716
0.000042675 -0.000195818 0.000750598
0.000413318 0.000329778 0.001003011
0.000732854 0.000056336 0.000396015
0.001774873 0.000775873 -0.000122149
0.002000998 0.000586563 0.000853802
-0.003049894 -0.000999526 0.000618588
-0.000927155 -0.000088594 0.000446660
-0.002861927 0.000528930 -0.001842113
0.000517173 -0.000775631 -0.001435425
0.001370865 0.000991223 -0.000372549
-0.003134675 0.002171549 -0.002566584
0.001353716 0.000421116 0.000000911
0.001156274 -0.001012551 0.002080013
0.002528735 -0.001465192 0.000218733
0.002144148 0.000991213 -0.000210612
-0.000142826 -0.000327913 0.000842449
0.000008071 -0.000059688 0.000583794
-0.004391198 -0.000810713 0.000312892
-0.000867345 0.001671467 -0.003590585
-0.000802528 0.000263568 0.000861591
-0.000823655 -0.000135498 0.001353268
-0.000048172 0.000047222 0.000457455
0.000656062 -0.000603537 0.001208772
0.001722522 -0.000551138 0.002076415
-0.000616913 -0.000990179 0.001384317
0.000065480 -0.001094781 0.002132262
0.008799681 0.000307436 0.002144599
-0.000980905 0.000520736 -0.000217860
0.000139609 -0.000015350 0.000555589
0.000777117 -0.000204099 0.000514817
-0.000044691 -0.000049698 0.000567006
0.002664587 0.000843962 0.000803494
-0.000250033 -0.000800565 0.001049202
-0.002122224 -0.000678008 -0.001314119
-0.001031269 -0.001199426 0.001365243
-0.002844028 0.000787928 -0.002064250
-0.001104521 -0.000620620 -0.001407307
-0.003480351 -0.002401660 0.001190661
-0.000791426 -0.000494572 0.000729086
-0.001799755 -0.001041436 0.001223735
-0.002211578 -0.001092848 0.001303175
-0.000884204 -0.000110276 0.000638233
-0.001793871 -0.001177299 -0.000897297
-0.001282205 -0.000597370 -0.001726414
-0.005410096 0.013932534 -0.034985088
0.002356200 0.002057744 -0.001768307
0.000059359 -0.000209758 0.000756606
0.001829881 0.000213645 0.000463722
-0.000352078 0.003542068 -0.005717939
0.000042456 0.004337050 -0.006209664
-0.000847581 0.001664011 -0.003602166
-0.001465340 0.001402290 -0.000400387
-0.000016371 0.000076147 0.000384374
-0.000124167 -0.000218226 0.000736592
-0.000279603 0.000585157 -0.002576608
-0.001027007 0.000405696 0.000168358
-0.000669029 -0.001510488 0.002222530
-0.000059126 0.000213346 0.000300046
-0.001977564 -0.002169454 -0.000364464
-0.001497818 -0.000844275 0.001658794
-0.001122910 -0.000176485 0.000509964
-0.001398836 -0.001481402 -0.000911675
0.000262884 -0.000728463 -0.001504668
0.001210524 -0.000570682 0.002115829
0.000014507 -0.000103312 0.000462574
-0.001593929 -0.001205799 0.002707537
0.001237582 0.000646968 0.000898995
-0.001403801 -0.001146440 0.001740238
-0.001053711 -0.001555841 0.001257319
-0.000453530 -0.000402399 0.001245721
-0.001343218 -0.001833320 0.001294649
0.000094430 -0.000288864 0.000836675
0.000093089 -0.000292296 0.000833488
0.005634295 -0.002413979 0.001809299
0.003436026 0.000276686 -0.001635444
0.000974989 -0.000640557 0.001975903
0.002302545 0.000155152 0.000700082
0.005335464 0.001954684 -0.003871279
0.015049770 -0.005201933 0.001768059
0.002417354 0.002333419 -0.002054719
-0.001516513 -0.001122646 0.001743021
-0.010124962 -0.019437227 0.016428681
0.001049746 0.000594249 0.000845380
0.000149832 -0.000655775 0.000811703
-0.002053232 0.003060502 -0.005041435
-0.001859313 0.004096193 -0.005522759
0.000066057 -0.000206087 0.000755420
-0.000790256 0.000274678 0.000068440
-0.005670965 0.004930302 -0.006387887
0.002688340 0.001362724 0.000365193
-0.002181700 0.003436662 -0.005590449
-0.002164707 -0.000660784 -0.001359661
-0.001327705 0.000182244 -0.002221425
0.001933949 -0.000418794 -0.001261527
0.008042549 0.001544851 0.001088185
0.006194080 0.004068183 -0.005004277
0.000094757 0.000133279 0.000312345
0.003136462 0.006393152 -0.006847850
0.004992169 -0.000210256 0.000096035
0.007747272 -0.001254053 0.000007116
0.004845352 0.000007853 0.000040351
0.002535894 -0.003211687 0.001830360
0.002243662 0.000425986 -0.000021461
-0.000285046 -0.001309291 0.001422462
-0.005227553 0.000639996 -0.003134747
0.003340041 -0.000108706 -0.001106185
0.000486405 -0.001491404 0.001999171
0.003041189 -0.001015725 -0.000212806
0.007220447 -0.008611857 0.010037594
0.039086994 -0.012951409 0.011890355
-0.000002956 0.000132112 0.000385898
-0.000936335 0.001138981 -0.000969362
-0.000283055 0.001307388 -0.000263959
-0.000042616 0.000106200 0.000101396
-0.000185102 0.000161855 0.000208752
-0.000521312 0.000288217 0.000265402
-0.000594757 0.000339177 0.000316634
-0.000515796 0.000288239 0.000258804
-0.000647382 -0.001181878 0.001195161
-0.000021355 -0.000556395 0.000195135
-0.000899425 -0.000618026 0.001812342
0.000303686 0.000271507 0.000542022
-0.000207027 -0.000055387 0.000708431
0.000263949 0.000240061 0.000473776
-0.002224540 -0.000798408 0.002031559
-0.000809598 -0.000547948 0.001625237
0.000068552 0.000170039 0.000431599
-0.000200524 -0.000050793 0.000687745
0.000343039 0.000304106 0.000595894
-0.000402560 -0.001111059 0.001189626
-0.000261903 0.000309157 0.000435481
0.010280102 -0.001513968 0.004683859
0.000119173 -0.000156564 0.000572361
0.005661387 0.001493458 -0.001801562
0.002560498 0.000919267 -0.000427849
-0.002711723 0.001207005 -0.002967839
0.000168289 0.000858984 -0.000493415
0.003717710 0.010157189 -0.018669523
-0.000016521 -0.000039542 0.000484832
-0.001008805 0.000332955 0.000358188
-0.002288016 -0.003731252 0.001951029
-0.000044955 -0.000047644 0.000570394
0.000011878 -0.000136084 0.000494033
0.000185026 -0.001374804 0.002017301
0.001072659 -0.000645704 0.001763335
0.002695952 -0.002477588 0.001101716
-0.000453172 -0.001058161 0.001270287
-0.003512800 -0.000945339 0.000029765
-0.001347782 -0.000412519 0.000058191
-0.001280837 0.000902425 -0.001088588
-0.001373344 -0.001088136 0.000919878
0.011357688 -0.004184538 0.002427431
0.007603925 -0.001454410 0.002485638
0.000012191 0.000138516 0.000401939
-0.000449019 0.001032908 -0.000712137
-0.000583101 0.001218860 -0.000167780
0.000044881 0.001527358 -0.000713230
-0.000114065 -0.001322894 0.001446561
0.007315916 -0.000725228 0.002985007
0.000133238 -0.000149421 0.000569200
0.002218285 0.000265530 0.001391653
0.000006315 0.000003959 0.000519315
0.001321821 0.001265215 -0.000916290
0.000005157 -0.000052960 0.000585020
0.001158160 -0.001039610 0.002116032
0.001058907 -0.000697544 0.001785067
0.000093671 -0.001580261 0.002107285
0.003521154 0.001265822 -0.002531314
-0.001052403 -0.001269812 0.001561823
-0.008740507 -0.002314096 0.001395254
0.001714098 -0.005217939 0.003784281
-0.000382148 -0.001073854 0.001354071
-0.000057180 -0.002858578 0.000883515
-0.000302973 -0.000095048 0.001366763
0.010411785 -0.001537877 0.004633714
-0.000009497 -0.000154152 0.000692962
0.010232805 -0.002670634 0.002439266
-0.000057780 -0.000196100 0.000723119
-0.001264302 -0.001305667 0.001998780
-0.000140243 0.001060136 -0.000227498
-0.000893978 -0.001334346 0.001359096
0.002322757 -0.001487732 0.002154548
0.000168380 -0.000075966 0.000494329
-0.006651761 -0.003319097 0.002384168
-0.009257086 -0.003375139 -0.000566761
-0.003823582 -0.000792270 0.000397060
-0.000489667 -0.001797209 -0.000375933
-0.002561105 -0.005458354 0.003972236
0.000667102 0.002646248 -0.004852046
0.001944447 -0.000519558 0.001995414
0.000091420 -0.000289126 0.000839551
0.000170626 -0.000080535 0.000495961
0.000947540 -0.002303068 0.001024970
0.000090008 -0.000284308 0.000846399
0.001675214 -0.001989145 0.002309961
0.060544327 0.004371653 0.003823459
0.002961415 -0.001454422 0.000263905
0.002216942 0.000276243 0.001397968
0.003262457 -0.000634997 -0.000754244
-0.000053326 0.001200298 -0.000812613
0.003279748 -0.000122141 -0.001042359
0.000099860 0.002948308 -0.003509365
0.005099073 -0.000639718 0.000165040
0.001284179 0.002008896 -0.004186112
0.002542783 0.000941826 0.000085716
-0.002884580 0.000089624 -0.002446201
-0.002728119 0.000652264 -0.002039003
-0.004771191 0.000840059 -0.003470066
0.001529238 0.006314243 -0.007885884
0.002298182 0.003057758 -0.002861653
-0.001160303 0.014228257 -0.011769389
0.003063625 0.006171080 -0.006438047
0.002635119 0.000984099 0.000075640
0.002093301 -0.000336810 0.001999649
0.003295294 -0.000458877 -0.000913257
0.000527287 0.001416479 -0.001440835
0.005966648 -0.000489350 0.000302789
0.002576079 0.000863867 0.000157256
-0.001500051 -0.000842026 0.001658014
-0.004510009 -0.005965849 0.003844509
-0.001936416 0.001038673 -0.001244614
-0.001886968 0.002026434 -0.002477519
0.005707923 0.003722185 -0.004600312
-0.000689659 0.001123351 0.000030902
-0.000560342 0.001102136 -0.000317260
0.000344497 -0.000790318 0.001765216
0.000136813 -0.000012356 0.000542821
0.008153142 -0.001193024 0.001074261
0.005280067 -0.002288332 0.001737193
0.015898684 0.000014765 0.004423603
0.000133016 -0.000543144 0.001124388
-0.000027686 -0.000196701 0.000731327
0.000070370 -0.000200856 0.000753720
0.001795656 -0.000326918 0.001972300
0.001050628 -0.001632247 0.002091676
0.001879906 0.000854309 -0.000206384
-0.002053026 -0.002813850 0.002015247
-0.000880645 -0.000599878 0.001808312
0.000018647 -0.000083779 0.000522572
-0.000580412 0.000221007 0.000828139
0.000119868 -0.004657727 0.004854056
-0.001575286 -0.002305429 0.002431514
-0.000486835 -0.001117365 0.001496941
0.005594329 0.001316567 -0.001068560
0.001480032 0.001615145 -0.001035691
0.002961949 -0.001471596 0.000254841
0.001141736 0.001332990 -0.001229683
0.001126673 -0.001263499 0.002365012
0.001029067 -0.001481733 0.002536516
0.007960121 0.004433881 -0.004013810
0.001647925 -0.009693619 0.008550517
0.001081665 -0.001400900 0.002067579
0.010961404 -0.000903271 0.002362067
0.000082961 -0.000272673 0.000799565
0.002047368 0.001831531 -0.003551592
0.001297954 -0.000716725 0.001821561
0.001125776 0.000932823 -0.000354700
0.003231154 -0.000686107 -0.000709270
0.000945878 -0.000128455 0.001023824
0.003736017 0.007261807 -0.008500223
-0.000071975 0.002998763 -0.003594880
0.000507317 0.000847969 -0.000620734
0.007001550 -0.000624047 -0.000015450
0.009069495 0.000194961 0.003200330
-0.000045132 0.004424419 -0.006310052
0.001535085 0.001212804 -0.000490801
-0.000132356 0.001175055 -0.000791754
0.001094921 0.000899417 -0.000366891
0.008739186 0.005595579 -0.001107412
-0.001419073 0.001091410 -0.001164395
0.001714310 0.001290273 -0.003189101
0.005319502 0.002806347 -0.002531734
0.005608339 0.004382417 -0.003784894
0.001289475 0.000919072 -0.000326368
0.000150101 -0.000139362 0.000581660
0.005244034 0.003726805 -0.005848174
0.001212332 -0.000109948 0.000572468
-0.003348525 0.001928606 -0.004321968
-0.001173603 -0.000120060 -0.002032183
-0.000014325 0.000281466 0.000277790
0.000929351 -0.000095905 0.000849093
0.000035669 -0.000024901 0.000564911
0.001195749 -0.000731896 0.001742412
0.006480996 0.000011615 0.003691564
-0.000777633 -0.000193863 0.000840807
-0.001546253 0.001356560 -0.001745302
0.000525906 -0.000768873 -0.001420459
0.000485451 -0.000776517 -0.001375644
0.001392282 -0.001055901 0.002319124
0.001943393 0.002125153 -0.002439857
0.000010614 0.002442155 -0.002707183
-0.000290731 0.001908874 -0.002261859
0.003580240 0.000508853 -0.001910099
0.000042871 0.000230581 0.000316698
0.001896968 -0.002113232 0.002440899
-0.001105111 0.000029477 0.000290510
0.000268508 0.000614783 0.000804056
-0.001447145 -0.001106993 0.001215537
-0.000110546 0.000848897 -0.000515085
-0.000517601 0.000516443 0.000528031
-0.001393504 0.001769051 -0.002268622
0.001548289 -0.000577958 0.001617680
0.000023514 -0.000336928 0.000879512
-0.000278418 0.001224563 -0.000209390
-0.000114356 -0.000175193 0.000712058
0.003282082 -0.000253258 -0.001203705
0.002144104 0.000498622 0.001039562
0.000051448 0.000160728 0.000404325
0.000278918 0.000140204 0.000326980
0.000014650 0.000187180 0.000285675
0.000610281 -0.002458230 0.000268819
0.000695139 -0.001328457 0.000835160
0.001171196 -0.001411619 0.002065107
0.000510096 -0.001623168 0.002196041
0.000389087 -0.000268376 0.000016570
-0.001195802 -0.001225559 0.001495936
-0.001521294 -0.000724446 0.001525615
0.000033609 -0.001138944 0.000717964
0.000187348 0.000213484 0.000131318
0.002640250 -0.002219149 0.000895699
0.004290913 -0.002524501 0.001408825
-0.001493233 -0.000989457 0.001809857
0.000907653 -0.000813425 0.001661525
-0.002291271 -0.002113359 0.001591187
0.000325079 0.000297865 0.000572818
0.002958498 -0.001076504 -0.000105314
-0.000022760 -0.001100882 0.000391029
0.001191906 0.000906300 0.000482116
-0.002127787 0.002564844 -0.004752634
-0.000941004 0.001917131 -0.005938443
-0.003409075 0.000566532 -0.001808195
-0.001857799 -0.000419661 -0.000043493
0.000344248 -0.003031868 0.001167653
0.000195768 0.000193602 0.000366915
-0.002731068 0.000460681 -0.002537920
-0.000406177 0.000559698 -0.002569573
-0.000421305 0.001069338 -0.000751460
-0.000298074 -0.000517206 0.001019417
0.000008178 -0.000196933 0.000737524
-0.000028894 -0.000339380 0.000879354
0.000003093 -0.000340237 0.000885674
-0.000804553 0.000170615 0.000226135
0.001356671 0.000529371 0.000255389
0.001998487 0.000579821 0.000856503
-0.000343178 -0.001016658 0.000921475
-0.001105794 0.000454590 0.000305691
-0.001200663 0.000262649 0.000814474
0.000124514 0.000145749 0.000367877
-0.009547064 -0.004757021 0.001163898
-0.000795975 0.000176113 0.000434143
0.001852707 -0.002419931 0.002755227
0.007201806 -0.002108565 0.001847741
0.002281464 -0.004676285 0.003211303
-0.002996053 -0.002306479 0.000176055
-0.005378160 -0.004776787 0.004762743
0.000134184 -0.000135454 0.000548052
0.000089972 0.000130382 0.000402081
-0.000014332 -0.001772830 0.000103437
-0.000156912 -0.000323207 0.000752840
-0.001950230 0.002918831 -0.004794122
0.016567772 0.007338548 -0.004829655
0.017152386 0.012184293 -0.014910962
-0.000525990 -0.000328483 -0.000672545
-0.000019377 0.000091064 0.000380257
-0.000093564 0.000541720 -0.000092921
-0.010670861 -0.004608625 0.003207677
-0.001540501 -0.001065171 0.001406796
-0.012602037 -0.005492510 0.000996322
0.000014335 -0.000067712 0.000469437
0.003488417 0.006426656 -0.007861115
-0.000041362 0.000048906 0.000453143
0.003267154 -0.001512803 0.000250039
0.002566526 -0.002745455 0.001527480
0.000126071 -0.000159908 0.000540388
-0.003685150 -0.001104675 0.000310127
-0.000217610 0.001114737 -0.000481995
0.005110423 -0.001078642 0.000192873
0.001169826 -0.000709606 0.001950535
-0.000780838 -0.010125123 0.008687521
-0.001738112 -0.002186584 0.001757161
-0.002592743 -0.001105183 -0.000995699
-0.005610718 -0.002625080 0.000065889
0.001272012 -0.001312030 0.002028921
0.007019430 -0.001722540 0.003090731
0.006941667 -0.001890521 0.002934358
-0.000628363 -0.001009032 0.001423352
0.014769693 -0.020388927 0.010481658
-0.002657386 -0.000499198 0.001352078
-0.002787520 0.000325791 -0.001103590
-0.043981481 0.018109977 -0.023922302
-0.003175540 0.000360627 -0.001335892
0.003546275 0.001365720 -0.002617086
0.002333794 0.000466106 0.000362230
0.001160447 0.001935305 -0.001401045
-0.002624496 0.001019439 -0.003467634
0.010906801 0.006400569 -0.007480913
-0.001878133 -0.001090685 0.001272088
-0.000644587 -0.000430569 0.000992738
-0.001775134 -0.001358953 0.001467648
-0.001271957 -0.001230376 0.001486436
-0.000530509 -0.000824484 0.002212322
-0.001538885 -0.000756123 0.001745416
-0.000007238 0.000079360 0.000389888
0.000000612 0.000077242 0.000404146
0.001076995 0.000542735 0.000988303
-0.001164314 -0.000339938 0.000612051
-0.002292627 -0.001471354 0.001201209
0.001249094 0.001925363 -0.001830353
0.000992409 0.001194284 -0.000568341
0.011166679 -0.000638317 0.002407162
0.002468717 0.000732445 0.001049739
-0.000625983 -0.000606553 0.001933705
-0.001064033 -0.000752314 0.001849950
-0.001280664 -0.001825304 0.001905410
0.001064016 -0.000831984 0.001620523
-0.000046280 0.000036548 0.000450713
-0.000047549 0.000034436 0.000448382
-0.000518743 -0.001112571 0.001341318
0.002353920 -0.003313736 0.001989494
-0.000934215 -0.003637810 0.003543526
-0.000199520 -0.002249908 0.003317348
-0.000086805 -0.001268443 0.002439070
0.004994016 -0.000267169 -0.000806144
-0.000042986 0.000192379 0.000324296
0.001991247 -0.000422105 -0.001301534
0.000056876 0.001671280 -0.000800696
0.000247983 0.001315808 -0.000870358
0.008763710 0.005330572 -0.008147973
0.003435813 0.000234977 -0.001619015
-0.003131993 -0.002575861 0.001392107
-0.003639519 -0.004779547 0.006502290
-0.001233091 -0.000530021 -0.000085744
0.000464037 -0.003768764 0.002492798
-0.003074664 0.000292923 -0.001193511
0.000928898 -0.000772790 0.000283292
0.005410163 -0.004429965 0.006842419
-0.001419618 -0.000819612 0.001940481
-0.000241332 -0.002286934 0.000144736
-0.001404469 0.001114311 -0.001432648
-0.000606884 0.001089197 -0.000779589
0.009885987 0.002923950 0.000402827
-0.000027672 -0.000336144 0.000880124
0.002855515 0.001353400 0.000167216
-0.000633275 0.001138475 -0.000959632
0.002103947 0.001168057 0.000294221
0.000863317 0.000744629 0.000547043
-0.000148995 -0.000316659 0.000845166
0.004685691 -0.000783600 0.002831745
0.000049742 -0.001587165 0.002640686
0.000978730 -0.000584821 0.001818696
0.000738556 0.000780050 0.000538054
-0.000915432 0.000108932 0.000286039
-0.001537812 -0.001531972 -0.001075467
-0.001875871 -0.001447644 0.001580827
-0.000509468 -0.001075718 0.001587307
-0.000247552 -0.006073078 0.015963793
0.000087596 -0.000286230 0.000847235
0.000100861 0.000153282 0.000362016
0.002068922 -0.004446402 0.003229697
0.000016106 -0.000107287 0.000480105
0.002386274 -0.001464247 0.000212961
0.000031354 -0.000335664 0.000894588
0.005395397 0.004668603 -0.005874591
0.006129339 0.004573263 -0.005178938
-0.002579210 -0.002665607 -0.000499562
-0.004982656 -0.005257906 0.003376288
-0.004028738 -0.003213640 0.000948163
-0.001615071 -0.001100774 -0.000771960
-0.003110728 -0.008858121 0.007010548
0.000697544 -0.000484079 0.001950036
0.001687028 -0.007160843 0.005234238
0.002040634 -0.001665415 0.002203878
-0.001762854 -0.001157267 -0.000849115
0.000132295 -0.000547932 0.001129718
-0.007768562 -0.008516971 0.008088632
-0.000148610 -0.000324161 0.000851496
0.001229274 -0.001110040 0.002046214
0.004030134 -0.001792169 0.001144639
0.000104739 0.000131984 0.000400072
-0.004242026 -0.004275753 0.002710147
-0.000112085 -0.001720299 0.000594937
-0.002725738 -0.002403328 0.001849730
0.001505446 -0.002759157 0.001129219
0.000389777 0.000173787 0.000443099
-0.001215382 -0.002329209 0.001907020
0.000938104 -0.000846588 0.001558675
-0.000149130 -0.000308962 0.000813655
-0.000040752 0.000043817 0.000450925
-0.000190794 0.000220848 0.000330353
-0.000289439 -0.000142944 0.000052745
0.000033112 -0.000064172 0.000467733
0.001578593 0.000755334 0.000752158
0.001458396 -0.001243166 0.002223565
0.000738473 -0.001591816 0.002072849
0.000873833 0.001209420 -0.000923598
0.001000097 -0.000978086 0.001775340
0.000529003 -0.000807473 -0.001456060
-0.000087361 -0.000292392 0.000837263
-0.000046947 0.000206065 0.000299378
0.000134413 -0.000147430 0.000568166
0.002113732 0.000045904 0.000736895
0.001636222 0.002028347 -0.001895871
0.003187311 0.000367239 -0.001632429
0.010074878 0.009793737 -0.005988121
-0.000367680 -0.000087767 0.000031028
0.000051317 -0.000213959 0.000748703
-0.000824888 0.003301603 -0.001180751
-0.000300816 0.001239415 -0.000125913
0.000630153 0.000524804 -0.002845718
-0.000894178 0.001689388 -0.003627303
0.008039090 -0.000434146 0.003248424
-0.001304155 0.000184499 0.000631366
0.005971164 -0.001497773 0.000156607
-0.000050223 0.000210272 0.000305862
-0.000259256 -0.000600952 0.000368467
-0.004300646 -0.003364603 0.001001616
-0.002669768 0.001352701 -0.003028005
-0.001844234 -0.000800391 0.000709983
0.001160530 -0.001153930 0.002712310
0.004799797 0.000204375 0.000464743
0.001980922 -0.004137688 0.002873383
0.007991830 -0.000989167 0.000267535
-0.000296106 -0.001237385 0.001670808
0.002260431 -0.003394422 0.002042904
0.000002008 0.000077869 0.000383125
-0.001173695 -0.000325338 0.000583991
-0.003672478 0.001746876 -0.002141623
-0.001120790 -0.000643753 0.001272322
0.008750642 -0.001400367 0.000026818
0.002804496 -0.001317720 0.000028441
0.001409059 0.000958417 -0.000612553
0.000367728 0.000167693 0.000406745
-0.000329920 0.000561103 -0.002581528
-0.005914155 -0.002620745 0.000597000
-0.006428744 -0.004229307 0.002189002
-0.001916704 -0.000995601 0.001573680
-0.016004859 -0.003104574 -0.000794811
-0.002110642 -0.003493380 0.001241558
-0.001266035 0.001071912 -0.000592824
-0.001172708 0.000117529 0.000629087
-0.000362728 0.002612748 -0.003068704
-0.004320830 -0.003212756 0.001271716
-0.004819295 -0.002082544 -0.000203398
-0.001551957 -0.001517300 -0.001208232
-0.001436221 0.000465952 0.000236780
-0.002347046 -0.000531798 0.000359795
-0.002702598 0.000361340 -0.002616255
-0.000018026 0.004511923 -0.006438963
0.000004170 0.000095585 0.000392941
0.000025693 0.000136786 0.000382559
0.001396279 0.001063651 -0.000403786
-0.000058604 0.000201392 0.000437571
0.001704508 -0.001473792 0.002238605
0.001208090 -0.001432741 0.002098760
0.001037961 -0.001287336 0.001894138
-0.000280213 -0.000485318 0.001002643
0.003756169 0.000329999 -0.001800884
-0.000036987 -0.000355415 0.000711668
0.000943591 0.000664330 0.000466651
0.000323177 0.002117804 -0.002717982
-0.002455194 -0.001501855 -0.000505756
-0.001393347 0.001428324 -0.000742711
-0.000819513 -0.000482090 0.000426462
0.001765503 0.001036412 0.000341003
0.000029656 -0.000332231 0.000883956
-0.005277189 0.001196042 -0.003736057
0.000561488 0.001883918 -0.001942101
-0.000000608 0.003930982 -0.004734756
0.001809460 -0.000437558 -0.001326406
0.006242463 0.005362330 -0.006726100
-0.003097854 0.000698465 -0.002171450
0.011390492 0.018895594 -0.022415722
-0.002541682 -0.000603586 0.001168117
0.000680704 -0.001901475 -0.000070007
-0.001445315 -0.000623557 0.000546806
-0.001092628 -0.000019501 0.000263014
-0.000891647 0.000407872 0.000695609
-0.000951022 0.000426520 0.000740181
-0.000757759 0.000250083 0.000812735
-0.001172656 -0.000134342 0.000496821
0.000208096 -0.001652675 -0.000163310
0.001765617 -0.001106808 0.000145943
0.000370289 -0.000853540 0.001862794
-0.000525484 0.000288011 0.000271528
-0.000888368 0.000393610 0.000679326
0.001005598 -0.000794909 0.001544028
-0.001145187 -0.000090744 0.000518115
0.000662881 0.000350544 0.000621834
0.000330840 -0.000063994 0.000414509
-0.000966956 -0.001317078 0.001586869
0.000789073 -0.001872234 -0.000087017
-0.001292206 -0.000094178 0.000492752
0.000483909 0.000158509 0.000552057
0.000840753 0.000779067 0.001017324
0.000026181 0.000251405 0.000296353
-0.000119406 -0.000198637 0.000717391
0.003277588 0.000239893 0.001315611
0.001160602 0.000055656 0.001382102
0.000204049 -0.000460333 0.000203678
0.001372339 -0.000076941 0.000007809
-0.000647933 -0.001236435 0.001248708
-0.000528435 -0.001088436 0.001790390
-0.000112958 -0.000088023 0.000612688
0.000663116 0.000659854 0.000822434
-0.000804283 -0.001405458 0.001418937
-0.001622845 -0.001039273 0.001686322
0.001050346 0.000173338 0.001276193
-0.001202129 -0.000028602 0.001370962
-0.001155260 -0.001211212 0.002258106
0.000050110 0.000127054 0.000113382
-0.000800944 -0.000493220 0.000324105
0.000651763 -0.001656370 -0.000065780
-0.000471323 -0.000483712 0.000064565
-0.000048424 0.000098462 0.000088466
0.001450522 0.001286448 0.000039826
0.001700059 0.000841862 -0.000059615
-0.000636854 0.000238368 0.000905394
-0.000171059 0.000319700 0.001042139
0.000913581 -0.001219072 -0.000095949
-0.000166675 0.000311017 0.001002515
-0.001024159 -0.000988742 0.001536025
0.000109231 -0.000439447 0.000174786
-0.000067621 -0.000766415 0.000780873
0.000033425 -0.000341241 0.000116492
0.001138617 0.000052728 0.001453672
0.002083917 -0.000855001 0.001475945
0.001813520 0.000826832 -0.000155022
0.000490723 -0.001583034 0.002136016
0.001597722 -0.000526680 0.002098433
0.010480590 0.001309286 -0.005124121
0.001996686 -0.000669054 0.002373905
-0.000080390 -0.000339130 0.000859016
-0.000269624 -0.000208016 0.001244824
-0.000264051 0.001965510 -0.000582910
-0.003221949 0.000862713 -0.002204473
-0.000841819 0.000381557 -0.000011869
-0.000021990 0.000080950 0.000382693
-0.002247873 0.001638066 -0.003693461
0.006050747 0.004188274 -0.002095898
0.003642350 0.001347910 -0.002645394
0.003026187 0.003398540 -0.003859849
0.001944463 0.000090807 0.000586697
0.005365734 0.005256906 -0.006223993
0.001859864 0.002102312 -0.002852448
-0.000904483 0.000100287 0.000800020
-0.000931988 -0.000091702 0.000446886
-0.001500235 -0.000315155 -0.000023304
-0.000726493 0.000277852 0.000467718
0.000059224 -0.000065007 0.000448839
0.002717369 0.000273221 0.000687550
0.000759033 0.000001829 0.001113115
-0.004656166 -0.002675458 0.001561149
-0.004538121 0.000433983 -0.003032657
-0.013814270 -0.008563215 0.003104783
0.000071391 0.000436809 -0.000167039
0.000555616 0.001150793 -0.000539587
-0.000044891 0.000174800 0.000329937
0.000056382 -0.000213658 0.000759355
-0.001206276 0.000266486 0.000810076
0.001308961 -0.000413987 0.001557254
0.002294102 0.000826665 -0.000124594
0.004340216 -0.000034872 0.000118783
0.000053706 -0.000075096 0.000465505
0.000049074 -0.000075917 0.000444524
0.007322736 -0.001492380 0.002418640
0.013182072 0.003788918 0.000190983
0.002400374 -0.001469344 0.000214406
0.001590406 0.000825787 0.000646538
-0.003074797 0.000658594 -0.001948788
-0.002925737 0.000555595 -0.002113152
-0.001911540 0.003600055 -0.005101399
0.000119514 0.000149515 0.000386631
-0.000020667 -0.000328167 0.000856011
0.000553272 -0.000160214 0.000286619
0.001441867 0.001072827 -0.000432576
-0.001803088 -0.000410084 -0.000017139
-0.001919039 0.001735813 -0.003948119
0.005026463 0.000076003 0.000597864
0.000832648 -0.000623988 0.002003170
0.000743683 -0.001613507 0.002092470
0.011535264 -0.001374493 0.001087041
0.000608706 -0.000163309 0.001862986
0.001394804 -0.002332432 0.002831459
0.001217356 -0.007454273 0.005938625
0.000099915 0.000144267 0.000348733
0.005438153 -0.000551855 0.000029632
0.001136845 0.001785619 -0.000681621
0.006654025 -0.002714644 0.002045759
0.001147702 0.000949957 -0.000371627
0.002467726 -0.000467023 -0.001210495
0.000122467 -0.000163428 0.000541365
-0.000091016 -0.000193963 0.000718382
0.000001550 0.000002461 0.000555257
0.004825774 -0.000222676 0.000085371
-0.000027139 -0.000195628 0.000733167
0.001725533 0.000218857 0.000435359
0.001841626 0.001090585 -0.000414456
0.004979543 0.001782227 -0.000807551
0.004203685 0.001362702 -0.002891004
0.013625981 -0.000903393 0.002561450
0.001939058 0.002151318 -0.000747691
-0.000125807 -0.000193694 0.000709627
0.001561731 -0.001466978 0.002069658
0.001290451 -0.001316224 0.002034063
0.002197454 0.000275342 0.000517791
0.001422549 0.000570079 -0.000046577
0.000799689 0.000474799 0.000157290
0.004979337 -0.000785643 0.002264453
0.000108720 -0.001450297 0.002345847
0.009066992 0.001823320 0.002237558
0.001366462 0.000955384 -0.000372289
0.000182618 0.000906076 -0.000940966
-0.000118935 -0.000247993 0.000739657
-0.000647827 0.000372314 0.000681616
-0.000778592 0.000412351 0.000426356
0.000304214 0.000920364 0.000032833
0.002421221 0.000705555 0.000805593
0.000109913 -0.000093797 0.000613111
0.001887852 0.000980856 0.000061491
0.001346020 0.001223391 -0.000634882
0.000003985 0.000002696 0.000519230
0.003845253 0.000525595 -0.002021133
0.002766385 -0.002309683 0.000893586
0.004217901 0.003434843 -0.004877209
0.007898841 -0.002302024 0.002076920
-0.000152889 -0.000307420 0.000827070
-0.002891932 0.001890280 -0.002610602
-0.000675324 0.000629116 0.000398285
0.002522370 0.000415862 0.000487094
0.003369961 0.000196519 0.000933337
0.003896721 0.000415866 0.000510966
-0.000635988 0.000319357 0.000082180
0.003028920 0.000045988 0.000983810
0.004831255 0.009817167 -0.010276237
0.000846134 0.000840595 -0.000116817
0.001170629 -0.001446478 0.002153493
0.001736725 0.004637150 -0.003475034
-0.000764471 -0.001340555 0.000681864
0.000300125 0.000263932 0.000536758
0.000411446 0.000387659 0.000526887
0.000616369 0.000558685 0.000686083
0.001297747 -0.001204259 0.001464544
0.000228877 -0.001377848 0.002068703
-0.000936117 -0.000659965 0.001906696
-0.000350886 0.000192269 0.000361917
-0.000393611 -0.000229755 0.000108313
0.000012664 0.000178139 0.000273095
-0.000407432 -0.000264702 0.000074029
-0.000557583 0.000279389 0.000369610
0.001343951 -0.001669739 0.001943839
0.005289905 -0.000635430 0.000743899
0.002989869 -0.001360068 0.000012636
-0.000083867 -0.002503879 0.000771280
-0.000242771 -0.002309505 0.000148739
0.002842303 -0.002371038 0.000936946
-0.000998207 -0.000001724 0.000218640
-0.000060286 -0.000020373 0.000547277
-0.001362983 -0.001219584 0.001217605
0.001082206 -0.000621623 0.001071651
0.001279023 0.000618113 0.001186528
-0.000058194 0.000062156 0.000442777
-0.001479825 -0.000906356 0.001813868
0.000226229 -0.000268179 0.000828097
-0.002060360 -0.000932775 0.001649969
0.000020805 0.000155767 0.000417913
-0.001085524 -0.001274953 0.002018173
-0.000140146 -0.000306830 0.000828240
0.001812862 -0.000935452 0.001369642
0.000197913 -0.000496015 0.000206682
-0.001588354 -0.000939364 0.002205262
-0.000447346 -0.001292092 0.001836400
0.001058941 -0.006884750 0.004571075
0.000578601 0.000554658 0.000695476
-0.000046073 0.000047330 0.000476576
-0.000796904 0.000246850 0.000768146
0.001825499 -0.000583260 0.002234327
-0.000478686 -0.001118777 0.001489198
-0.000122335 -0.000199864 0.000725883
-0.000152532 -0.000325020 0.000857064
0.002707827 0.000216014 0.001454496
0.002905316 -0.001437459 0.000253000
0.004449886 -0.001624817 0.002308819
0.002816970 -0.001254751 -0.000027220
0.000033168 -0.001179690 0.002241116
-0.000586460 -0.001247512 0.001500424
0.000462944 -0.001591481 0.001705344
0.006352151 -0.002695834 0.002043409
0.005137593 -0.001546593 0.001379015
0.003205853 0.000392283 -0.001661759
0.001783463 0.000815967 -0.000177622
0.000538033 -0.001557867 0.002079433
0.002601734 -0.003353544 0.001925299
0.001099785 -0.001824112 0.001952999
0.003199892 -0.000647481 -0.000725454
0.009391705 -0.001147261 0.000818501
0.000098579 -0.000287058 0.000855134
0.005623589 0.003003520 -0.003565737
0.003829705 0.001965491 -0.003284079
0.000623235 -0.002013310 0.002202553
0.014992183 -0.001682024 0.004555993
0.000028031 -0.000330665 0.000887096
0.000014123 -0.000139756 0.000563741
0.000075214 -0.000263655 0.000782297
-0.000525410 0.000288245 0.000269723
0.000008606 0.000086699 0.000073717
-0.000306003 0.000164355 0.000293062
-0.000446924 -0.000303703 0.000092548
0.000153632 0.000170184 0.000327058
-0.000008625 -0.000080531 0.000362614
0.001410684 0.001356752 0.000647086
0.000197669 0.000193068 0.000576125
0.000105599 0.000132850 0.000378647
-0.001284378 -0.000791585 0.000615526
-0.000504796 0.000299962 0.000583319
0.000537185 0.000173159 0.000604477
0.000813414 0.000681758 0.000504254
0.000160216 0.000227350 0.000074792
0.000178080 -0.000742228 0.000485598
-0.000647689 -0.000204229 0.000131877
0.001713122 0.001481291 0.000056817
0.001855124 0.001669673 0.002158272
0.000093182 -0.000863015 0.000313252
0.000143256 0.000258022 0.000643312
0.000031608 -0.000161618 0.000664331
0.001159893 -0.001976006 0.000955277
0.000416012 -0.000067534 0.000256591
-0.000221134 -0.000731695 0.000187694
