-0.132897690 0.101851016 1.320401788
0.183834672 0.443290144 1.068658948
2.699955940 0.523838401 3.182172060
3.989358664 0.145897537 4.548831940
0.033060610 0.256713569 1.158201218
-1.973844409 0.762447596 2.529054642
2.677705288 -0.886203766 3.169008017
3.681891680 -1.242787600 3.787734032
6.520139694 -0.967335105 6.277108192
2.130449057 -1.555974245 5.083782673
0.461018801 -0.208978891 1.520232201
3.001473427 -4.053455830 4.603574753
6.199135303 -3.354592323 5.979108334
4.369413853 -2.693799496 3.796639204
1.507618427 -4.427552223 5.935889721
0.109209694 -4.948614597 8.148472786
2.041876793 -4.408372879 5.759000301
0.201547146 -4.967493534 8.267678261
2.378422022 -2.313061476 5.535891533
2.187286139 -3.345599413 6.326238155
3.814255476 -0.461795896 2.173410892
4.289566040 -1.545266628 2.216777563
-2.514858007 -4.857653618 4.925016880
-3.523185015 -0.108977214 1.448636413
-1.738168001 -1.939841270 5.331241608
-3.553567171 -2.508675575 6.258325100
-1.791733027 -1.223849893 3.710504055
-1.342228770 -0.063072704 2.549498320
-4.031975746 -2.250311613 5.486443520
-3.856928825 -1.910050750 4.428918839
-1.586048603 -2.503268242 3.595410585
-1.646228671 -3.200799942 3.360219240
-1.537845135 -3.352742434 4.120329380
-1.700462937 -3.943110466 5.287869453
-3.308298111 -2.749334574 6.189556122
-2.171700954 -2.364439964 3.997663975
-4.534963608 -3.437270403 3.715796947
-3.535901070 -4.063711643 4.362079144
-4.133806705 -2.637737751 4.300472260
0.090597257 -1.005847454 2.728831530
-1.569170356 -5.421555996 5.964169025
-2.384472132 -6.126374245 7.321772575
4.350817680 -2.026028156 4.858187199
3.021819115 -1.310092449 3.110029936
4.611125469 -2.865832806 4.584701538
3.582172155 -0.323339015 1.055394053
3.094045162 -3.068348646 4.810558319
2.393970251 -3.037989140 4.518260479
-1.352302074 -6.018013477 6.493895531
4.019442081 -1.237779617 5.141846657
2.400055408 -4.560799599 6.304457188
2.835987806 -6.190007687 6.391647339
1.447868943 -6.602507591 7.582183361
3.449694633 1.811745882 3.157663345
-1.120873451 -1.904836297 3.857835770
-1.017317295 -4.239552021 5.754843235
-3.753383636 -5.174014568 6.336513042
5.386427402 -2.368371010 2.215894699
5.582833290 -0.935029149 3.429531574
4.156645298 -1.210549712 4.450716019
4.004465580 -2.942452192 4.497362614
1.933911204 -1.599117041 2.526612282
3.056869507 -1.364971757 5.415221691
0.030356627 -0.444902718 1.801220894
-1.267674804 -4.566217422 6.894421101
-2.290094376 1.625544786 2.120200396
-3.583860636 -3.245725632 2.772970200
2.694402695 -2.134438992 3.893649817
2.773852348 -2.151318550 4.237374783
3.748522282 -4.249548435 4.948984146
3.733776808 -4.323296547 5.282601833
3.466242075 -4.337342262 5.491070747
2.370161057 -3.892897606 4.193260670
2.090299606 -2.262444019 4.500002861
1.259947300 -3.089620113 4.173193455
1.215914369 -3.204116106 5.429437637
0.182599232 -3.075957298 6.227442741
-0.169052243 -0.065948620 1.601360798
-1.809257984 -5.432159901 5.816504002
-3.108453751 -3.576458216 5.475540638
-2.388662815 0.879494429 3.425668716
-3.239638090 -2.672353983 3.920565605
-2.626374245 1.716133475 2.555626631
-3.137615442 0.263694972 2.827133894
-0.218800008 1.757879615 2.256544590
-0.297972709 -1.098982334 1.438988566
-0.921127617 -2.250225067 1.759473562
-0.680693746 -1.114441633 0.911566794
0.678592086 0.019660594 0.332019299
1.633642316 0.006974438 0.753566146
0.784496427 -0.134594411 0.469929993
0.292265296 -0.755986094 0.317382187
-0.481594861 -0.985663235 0.628689229
0.772038698 1.063593507 3.414624214
-0.866456687 0.956395328 2.313472748
-0.039077181 0.352171689 1.178843975
-0.112863675 0.977737665 1.314559817
-0.463604242 -0.791447163 2.715635777
0.488073856 -0.128789753 0.113032699
1.861287475 -0.361222446 1.218000174
0.029206641 -0.853935480 2.284477711
0.248392552 -0.813956738 2.370258093
0.427918345 -0.234721795 1.339698434
0.261778980 -0.743212700 2.522761345
-0.710016251 0.237785533 0.733576179
-0.451205432 0.236304417 0.402247757
1.594394207 0.111116290 0.316876888
-0.017865919 0.237171814 1.219341755
1.548814893 1.165005565 1.243822217
1.887405992 -0.037205033 0.797035396
-0.090601467 0.088926859 0.850088775
0.151295736 0.333342135 1.022972107
0.001512322 0.019135566 1.495805264
-0.136433989 1.072495103 1.429154515
-0.148417577 0.137517482 1.435517788
-0.399105877 -0.731503069 2.444905758
-0.170630410 -0.183134049 1.952098250
-0.281613469 -2.499046326 3.418224812
0.179666549 -0.567538559 1.620792389
0.403705776 -0.215511769 1.292412400
0.066959985 -0.398483068 1.862460971
0.167820528 -0.237537831 1.337609887
-0.478600234 1.145764947 1.285466909
-0.441564858 0.050600614 0.308694720
1.185080886 1.779146433 2.420438290
1.075333476 0.878394902 1.003823519
-0.017180292 0.237347871 1.163827658
0.164142057 0.178492934 0.452237457
0.580755472 0.463942200 0.796362817
1.123379946 0.509264708 1.294394851
1.314869285 -0.204110727 0.063560523
0.730856001 -0.204340965 0.235285863
1.827267051 -0.503378510 0.567146003
0.738319516 -0.308786482 1.329340339
0.614890218 -1.570227981 1.121196628
-0.483492494 -1.364845634 2.034329176
-0.661386430 1.559920907 1.904482365
0.612844586 0.019833123 0.055383109
1.300110221 -0.338169694 0.442068815
1.040545344 -0.160764098 0.274219513
3.526995659 -2.018382311 0.466347784
0.791543543 -0.077677712 0.421753287
7.490142822 5.536278248 4.613709450
0.393336326 -1.123540878 0.466417998
0.959647357 -0.149553165 0.284897357
1.847694397 -0.341144383 0.371163160
0.758497238 -1.179520249 0.657625496
-1.871538162 -0.345779896 0.779102147
0.882910907 -0.113464884 0.469264627
0.770102024 -0.451048166 1.593788743
0.818707645 -0.718963563 2.255049706
0.446888566 -1.151126146 0.490718156
0.027414169 -0.156157419 1.722924709
-0.761130810 -2.126861572 3.135835886
0.839863420 -0.075500168 0.320717007
0.996818066 -0.320305377 0.308833897
3.584719419 -1.122142196 3.966864347
0.168376893 -1.354042649 0.518382668
-0.002903261 0.010382786 1.573445320
0.002792733 -0.006572238 0.038934845
-0.512993634 -1.251842618 0.339697212
-0.369840980 0.125296503 0.347043991
0.836452782 -0.315787584 0.166392252
1.996112347 -0.027335010 0.769761443
0.672525287 -0.271549553 0.215674117
0.982395411 -0.247450531 0.903106391
0.400396913 -1.167731643 0.492042035
1.309154749 0.952172816 0.726317704
-0.191905513 1.505423784 1.870373011
-0.361531079 -1.143450618 0.649598062
-0.910861731 -0.219119459 0.678783953
-0.548014343 -0.316412061 0.212485045
0.616075873 -0.132224441 0.161096066
0.054256815 -0.784493089 2.106761217
0.419717789 -0.044589721 1.594056249
0.903760672 0.675133467 0.700221777
0.879731834 -1.326899052 0.658833921
4.658070564 -1.347272754 1.450158596
3.566817760 1.746685982 2.759053469
0.109607667 0.324260533 0.827578366
1.107512355 0.943480611 1.157389522
0.419583082 -0.224476025 1.311517000
0.091769964 -0.147671551 1.492950916
0.027355889 -0.150256082 1.776454806
-0.000206121 -0.438493639 1.760751367
0.041021343 0.271857470 0.798086762
-0.231731296 -0.278204143 0.670236528
3.310864210 0.360092074 0.375814080
0.330140084 0.050485052 0.004229095
0.680751801 0.028423555 0.334663004
1.177259922 -0.441215634 0.507836699
1.509132504 0.406985432 1.616439581
0.887785375 0.401731849 0.969316065
0.663237035 -1.742013097 1.243205667
0.829031229 -0.553200603 1.752979159
0.794835567 -0.628012717 2.080073595
0.010039256 -0.512355268 0.178837970
0.101196989 -1.396616697 0.522303224
-0.482251287 -1.177094340 0.322341383
-1.470086336 1.235001802 2.109947681
-0.468518853 -1.564287066 1.279268265
0.982566237 -0.239454895 0.278024226
1.017467618 -0.711154580 0.243832782
0.507155418 -0.550490797 0.308583558
1.525086999 -0.456215948 1.862246752
0.825724065 -1.664898038 0.761538923
1.277726531 -0.553141057 2.272377968
1.088004231 0.972399473 1.967332482
0.201199070 0.221050769 0.597976148
0.110137649 -0.237792462 1.488263965
0.033557396 0.046116073 1.347732544
-0.167627916 -0.175459430 1.962889194
-0.167970717 -0.362962276 0.093769118
0.601022840 -0.138138026 0.012115370
0.103639066 -0.089608580 2.193344355
0.395453274 -0.215086818 1.212906599
0.952814698 -0.624613225 0.191391945
-1.105370641 0.320330381 0.902279973
-0.045028463 0.239641622 0.934639692
-0.149515927 0.112356976 1.417266846
10.665345192 0.435267389 7.618210316
1.128212452 0.515045941 1.259693146
0.022377651 0.470355898 1.263076544
0.718635798 -0.764465988 0.434624135
0.243080556 0.477655560 1.358416557
0.041446753 0.364702165 1.076528549
-0.596582472 -0.621477544 0.435769260
1.123738170 -1.516407371 0.928324163
0.052602164 -0.279965162 1.966312647
0.110703297 -0.219401881 1.401493073
0.089018956 -0.122544840 1.303953528
-0.467172801 -1.233760357 1.637917280
-0.336574227 -0.981099784 1.594060898
-0.463634282 -0.615582526 1.482267499
0.953449190 -0.665001273 0.226726934
0.872105181 0.709074855 1.275906563
-0.168815330 -0.164540976 1.977522254
-0.976031303 -1.537094831 0.372862309
-1.545334935 0.553568661 2.173882723
-4.470415115 3.011812925 4.299406052
1.084636927 -0.593985438 1.214254618
0.100025706 -0.838264287 0.319068402
-0.003398551 0.203373119 1.110740066
-3.078962803 1.735496759 2.145788908
1.125565767 -0.288669616 1.121479154
0.476206362 -1.035409689 0.752674341
0.768634081 -1.189755559 1.694241881
0.908470869 -0.680575371 2.311917543
0.317960978 0.389258593 1.136650681
-0.699761152 -0.895650566 0.586869001
0.964317441 -0.653323531 0.211614504
0.680999100 -0.712179840 0.407713145
0.541606665 -0.646809042 0.352450430
1.136508465 1.026088834 1.355702996
1.005682945 -1.658335209 0.805299103
1.018028259 -0.550377488 1.969842196
0.223964646 0.253363580 0.701096892
0.570350885 -1.503585339 1.555309534
0.582859933 -1.748321056 1.338851213
0.478774369 -0.259267539 1.520580292
-1.064683795 0.091098309 1.011494279
0.470117539 0.085300051 0.026571479
0.623387039 0.651881456 1.672100902
-0.991055667 -1.018086672 0.921183288
0.022718538 -0.467373520 1.690895319
0.665213287 -0.342380971 1.348706245
-0.317154318 -0.978257954 1.745408416
1.298519015 -1.851873636 0.938486755
1.332313895 -0.957101882 2.931089878
0.459849447 -0.552707732 1.670976758
0.062377304 -0.229322821 1.610118747
0.061534591 -0.214333460 1.554283142
0.071536399 -0.331908822 1.496165752
0.110012583 0.023968395 1.348929882
0.940898776 0.427778691 1.030843496
-0.049503759 0.260101795 1.083473682
-0.158350736 -0.167822644 1.974238992
0.638211668 -0.660540998 0.375524968
0.416681111 -0.984363675 0.430293292
0.170430988 -0.615303278 0.252637744
0.013507867 -0.480288088 0.167759493
-0.005628814 -2.323760271 0.724013925
-0.095805064 0.867533326 1.216305137
0.565144420 -1.245920062 1.714278340
0.806908011 -0.434098721 1.607335806
0.461876363 -1.329213500 1.440576673
0.870059967 -0.234503224 0.213782772
0.636768579 -0.158390895 0.147664651
0.052539602 0.002625679 0.037221227
0.175117776 -0.033040423 0.170581847
1.762596011 -0.298212200 1.782114983
-0.064594105 -0.322104603 0.989760101
0.398542702 0.144886807 0.016456109
0.078425765 -0.052557398 0.015292731
1.125705361 -0.168447241 1.081896544
-0.409472674 -0.875972211 2.322422266
0.250238687 -0.787902594 2.348783731
-0.278278410 -0.766392052 1.524062753
0.174681887 0.713081777 2.293809652
0.255330652 0.349148870 1.121552825
0.481261164 -0.266619861 1.493546844
0.467643648 -0.560941041 1.708170295
0.182030886 0.350552261 1.199845076
-0.097800262 0.912330985 1.282002330
-0.412429154 -0.652665377 2.387897491
0.689464986 -0.713923872 0.409736991
0.797687232 0.363831580 0.869242609
0.536073208 -1.280586243 2.209249496
0.005607332 0.013022177 1.511973262
-0.144029215 -0.637602270 0.231160894
0.899985969 0.791114867 1.574792504
-0.151969671 -0.150265828 1.883848548
-0.565377593 -0.848665893 1.730307937
-0.752503395 -0.750583172 2.308830976
-0.155215845 -0.084147863 0.211242363
-1.050074458 -0.585217357 0.874228001
-0.159183145 -0.539008439 1.486117601
-0.002774420 0.320744097 0.994824231
-0.132554322 0.202390894 1.287100077
0.219368875 0.285594046 0.898054421
0.112497360 -0.348365396 0.387870431
0.522241294 -1.420517683 1.909644008
0.352391481 -0.869666159 1.178032637
0.226940900 0.261351883 0.720459461
0.572174191 -2.018736124 1.548202753
0.511502564 -1.825199246 2.014825106
-0.020299692 0.316814452 1.223728418
0.176844507 -0.032943800 0.173910484
0.418677747 -1.692413330 0.638973236
0.079387143 0.378793061 1.190884590
0.207519844 -2.068659306 1.704649091
-0.653007329 -1.032167912 2.111854792
1.094105840 -0.460116923 2.107355118
0.392273515 -0.164799482 1.441924572
0.387524068 -0.478618473 1.663430572
0.354802042 -1.064466953 1.591679811
0.155414358 0.009979742 1.653883338
-0.083055839 0.850333929 1.198777318
-0.060019713 0.297511518 1.234369040
0.245451897 0.368071824 1.097900271
0.257118911 -0.839697003 2.477854967
-0.235655114 -0.195223406 1.568979621
-0.326162189 -0.531196177 1.962916017
0.039773453 0.370691627 1.081390381
1.421725512 0.036746949 0.526642203
0.333151549 0.442421943 1.123760700
1.116874456 -0.575429142 2.106898308
0.377499849 -0.947271347 1.288199782
0.015077065 -0.399270922 1.504037499
0.025100155 -0.383483529 1.562169075
1.286424398 -0.189102709 0.345768422
1.515673161 -0.464084744 1.721040606
0.158848882 -0.037753157 0.175251365
0.078985199 -0.679307580 2.263289690
0.050794568 -0.198604032 1.463540196
0.474991709 0.156171173 0.028982116
1.452996254 -0.133721843 0.435359418
0.453082144 -1.125562668 0.831932902
0.440376163 -0.200548768 1.445797801
0.014024778 0.011774552 1.341277957
0.013667190 -0.342826635 0.276123524
-0.169250757 -0.147508144 1.230363727
-0.866104364 -0.482629716 1.225596666
-0.265758812 0.151468560 1.043235779
1.418208003 0.445055604 1.414655805
0.392063200 0.128255144 0.022414237
0.125896007 -0.112540662 0.048075657
0.088939033 -0.008770881 0.025092540
1.136238813 -0.556306303 0.104761712
-0.571564555 -0.578092158 1.797844768
0.087604672 -0.015402749 0.025126053
1.368100405 -0.103926182 0.430280358
0.487569958 0.747972548 1.759459019
0.112592168 -0.122248389 0.195012301
0.563765824 -1.130626798 1.592569590
0.657486260 -0.167837054 0.203955784
-1.072410822 -1.503038049 1.116744280
0.057033192 -0.020029312 0.045563772
0.921992481 -0.565802455 0.150820270
0.230994761 0.272428513 0.721242666
0.967718959 0.464043766 0.872453868
-0.640128374 -0.801358163 0.589942336
3.338622093 -0.800496936 3.727510452
0.155925915 -0.044319429 0.172573477
1.630936384 -1.212606072 4.084359169
-3.018006802 -3.633351088 2.774629354
-1.622854948 1.403365850 2.516098022
-0.149005145 0.608344257 0.880286515
-0.607458472 -0.759888053 0.559728563
1.466711640 -0.261818767 1.380345106
1.297872663 -0.344271451 1.295940876
-0.581662536 -1.050059676 0.248346835
0.020363811 -0.033668388 0.047817118
0.179149315 -0.185721695 0.256220579
-0.008434230 -0.310164481 0.092835948
0.569122851 1.564367771 1.761193514
0.082161441 0.002949516 0.034728024
-0.123133145 0.122640863 1.009589434
-0.791517079 0.339081228 0.608542621
0.044092268 -0.064073056 0.051545475
0.075567015 -0.010173303 0.018169219
0.041041952 0.051036496 0.119156323
0.437548846 -0.506861925 0.258954346
0.049231347 0.039438825 0.028280150
0.006822086 0.054458376 0.183175936
0.101543143 -0.010869801 0.030292535
-0.101540707 0.400580883 0.557474256
-0.041360691 0.042447396 0.310636342
0.049238697 0.038792185 0.028187107
0.343155742 -0.326562792 0.143480584
0.002555655 -0.049089987 0.169666991
0.033658132 -0.030130206 0.034666445
0.037007764 -0.018310878 0.064712964
0.019119097 -0.109422334 0.042194512
0.299218327 -1.322418809 0.451536268
-0.037324596 0.064152151 0.070459083
0.020852460 -0.022220349 0.042402819
-0.048895560 0.086621583 0.095035873
-0.048676498 0.086232096 0.094621517
0.060076844 -0.201818660 0.080956757
1.359493017 3.510740995 5.549504280
0.123154745 -0.299494565 0.165216401
0.050474811 -0.063396566 0.037728153
0.046814825 -0.023008689 0.033627458
0.076118074 -0.410040468 0.079972379
0.108701959 -0.032011881 0.089607313
-0.620887399 0.252122939 0.876109242
-0.073117718 0.082059205 0.200200871
0.931945384 -0.442228109 0.087725058
0.103158973 -0.060997538 0.166929156
0.014709206 -0.133996546 0.386213809
0.074712828 -0.008681291 0.020835077
0.191827744 0.113317028 0.001117087
-0.163921446 0.203147680 0.308319151
0.065399230 -0.157066599 0.071832605
0.667582273 0.467241943 0.413100183
0.106165469 0.031315893 0.106839597
0.172860101 0.009702994 0.089668736
-0.021217121 -0.039034873 0.019322304
0.098776415 -0.144115508 0.115269065
0.195203900 -0.575045645 0.239016756
0.245057717 -0.020667728 0.095469102
0.051272117 0.039476901 0.032992221
0.962680638 0.074851602 0.695188820
1.015793681 0.079108186 0.733574212
0.036913380 -0.404393166 0.545678794
0.090512730 -0.085019253 0.037372485
-0.062373891 -0.043980785 0.106642365
0.090958320 -0.142291933 0.262166709
-3.099639416 2.833124399 3.541914701
0.091378912 0.077436231 0.006411989
0.081969693 -0.008531799 0.027608220
0.034427088 -0.038910277 0.023408508
-0.019770784 0.077124037 0.106943972
0.044469934 0.034850318 0.024707409
0.071405694 -0.064631507 0.028984295
-0.119727992 -0.174539998 0.154695228
0.121723838 0.285122216 0.126996070
0.020355703 -0.050421268 0.077261813
-0.005086175 0.025801059 0.139498278
0.480965763 0.178940013 0.352958113
0.122132361 -0.048165221 0.086084746
0.031587146 -0.037639022 0.138303667
0.047544025 -0.050642021 0.026553582
-0.049732458 0.052939251 0.139236614
0.104717650 -0.006354803 0.036273725
0.699852824 0.378798962 0.564591885
-0.097795382 -0.114191018 0.098543257
0.215610877 -0.099187493 0.372315735
0.755933583 0.431900799 0.589641631
0.648835659 0.039809704 0.209074035
0.544821501 0.030370791 0.170033514
0.028992774 -0.024772743 0.029667599
0.113838077 0.094705001 0.065937743
0.332309306 0.123348758 0.004657052
0.403237283 0.150539935 0.005654582
0.061329313 0.053547006 0.091792598
0.009200127 0.021731116 0.037595194
0.131505430 0.105428889 0.076994151
0.072605491 -0.044055589 0.070296764
0.218270063 -0.098826595 0.000189846
0.078963414 -0.002409807 0.020751424
0.011747913 0.028751146 2.585720778
0.057304684 0.003449190 0.029544853
0.052196544 0.013708018 0.039213363
0.311326742 -0.013508263 0.073786497
0.332088411 0.277996808 0.605423272
0.029491751 -0.054883607 0.077715017
0.765095055 1.710716486 2.928270340
0.015336837 0.041036028 0.100255318
0.064326897 -0.100662515 0.050177623
-0.135331690 -0.251173913 0.064868949
-0.245603904 1.089615703 1.562072277
0.055369996 -0.239737049 0.106334142
0.061759837 -0.099174239 0.125225306
0.016639948 -0.114974871 0.077517055
0.378572077 -0.236099541 0.039545935
0.003784361 0.021037374 0.076447040
-0.436741620 -0.333182633 0.519646287
0.250601172 0.161283523 0.002668922
0.038854025 0.017992871 0.036428768
-0.990629494 0.329446048 0.745117366
0.218659490 0.025158733 0.022472514
0.010225913 -0.048589785 0.226127356
-0.046389315 -0.022214176 0.052332051
0.022936394 -0.041220084 0.019862000
0.063469470 -0.123653948 0.166847348
0.000436494 0.022952586 0.074966498
0.048366863 0.037427131 0.029538276
0.003288175 -0.054328341 0.020787295
0.044080358 0.032716766 0.028439986
-0.093010500 -0.142034471 0.036986347
0.044082072 0.032418851 0.028384522
-0.791539431 -0.557821751 1.355249643
-0.013657990 -0.038308740 0.070482157
0.046674453 -0.030418754 0.008380192
-0.077262551 -0.128904849 0.027462943
0.278502703 -0.330850512 0.182400241
0.037070163 -0.060052197 0.029864887
0.242284626 0.165000677 0.007021629
0.050016005 -0.026730141 0.038989116
0.040125284 -0.012247115 0.036266539
0.048110176 -0.167804956 0.174064070
0.372894675 -0.308698237 0.129041284
-0.745410740 0.064715326 0.512454927
-0.026121877 -0.085993335 0.022386162
0.315775752 -0.264052659 0.105467014
-0.562499523 -0.420204341 1.149581552
0.077599503 0.068479605 0.135381117
-0.234692872 -0.299764454 0.267988235
0.386856556 -0.300305128 0.109595627
0.154474169 0.047846988 0.160243124
0.030052491 -0.015372764 0.093154870
-0.270522088 -0.035310421 0.185765803
-0.001425127 -0.081979029 0.025140952
0.169911101 -0.200103775 0.103899188
0.166153431 -0.190656826 0.098258048
0.062069703 -0.023212936 0.021930596
0.066355057 -0.007906752 0.025935896
0.298767954 -0.650390565 0.450191915
0.086270057 -0.025029918 0.078269124
0.059868388 -0.036600631 0.052161939
0.027566457 -0.050798852 0.033723570
0.095982268 -0.018414175 0.109310649
-0.109973758 -0.771610677 0.294940561
0.299870133 -0.017343448 0.113276258
-0.090349719 -0.115955584 0.090026490
0.025602004 -0.077304810 0.085561819
0.069733776 -0.072298467 0.087074488
0.036389202 -0.041906599 0.020935057
0.075380266 -0.149508640 0.107326493
0.063499756 -0.003277195 0.024408789
0.091234058 0.003863007 0.045541823
0.118592516 -0.016356636 0.035700005
-0.021330642 -0.017737953 0.043896995
0.035140719 -0.038240880 0.021191906
-0.583676875 -0.291639656 0.197974056
-0.023457715 0.026205055 0.058859669
0.366644114 0.026829565 0.133926481
-0.065299630 -0.092661157 0.068613447
-0.190607309 -0.396975219 0.479674399
0.035476387 -0.036156245 0.019757994
0.013861862 -0.007317901 0.038179941
0.208939731 -0.465570003 0.330406666
0.036214262 -0.051972769 0.030571138
0.070405893 -0.010552677 0.067496948
0.084587954 -0.062686376 0.099966258
0.051628750 -0.119997345 0.052740820
0.056443390 -0.068112150 0.096066065
0.159343511 0.261250168 0.037703004
-0.007336737 -0.067507058 0.055855628
0.116888568 -0.032566078 0.056899417
0.048600059 -0.056426730 0.066741824
0.017116439 -0.051910304 0.036454238
0.072275400 -0.011575847 0.024185572
0.032411378 -0.031776011 0.014399553
-0.054350864 -0.089450382 0.021012906
0.187111780 -0.082171313 0.202527106
0.098750517 -0.061161514 0.095707417
0.042750854 -0.060018875 0.036620099
0.040736869 -0.063464075 0.031107966
0.077314742 -0.011543911 0.074289061
0.096654639 0.078332230 0.063424751
0.060019843 -0.036845166 0.052282095
0.093896464 -0.057387650 0.082606919
0.331016958 -0.014682775 0.078169011
0.005626831 -0.129150823 0.201001376
0.061490510 -0.046475075 0.073569536
0.061764907 -0.022090258 0.069739886
0.050246742 -0.035748091 0.052678917
0.176027581 0.097776473 0.142897472
0.150814548 0.038388375 0.165585369
0.016043065 0.026196988 0.065204397
0.059069932 -0.036289081 0.052194823
0.064782992 -0.020172536 0.069855094
0.071112551 -0.086896107 0.050935566
0.097220995 0.208426282 0.085291773
0.088021599 -0.014951687 0.054205697
0.024606870 -0.055083238 0.035556994
0.001502678 0.004598849 0.232049182
0.010963203 -0.021654993 0.028180018
0.060979784 -0.049041230 0.076387718
0.118631713 -0.028915847 0.053229284
0.074889153 -0.047126867 0.066901304
-0.068937518 -0.102943704 0.135122254
0.072042987 -0.134624213 0.090407640
0.083085187 -0.012903481 0.084245607
-0.021729713 -0.002354449 0.013810714
0.062708028 -0.062604755 0.100337155
0.047714707 -0.056878950 0.067411184
0.065021276 -0.074085444 0.105581410
0.046377983 -0.094691411 0.065483175
0.067022309 -0.061896931 0.129902184
0.463193953 -0.044339437 0.267454922
0.071088493 -0.141559482 0.192248151
0.477882147 0.398935378 0.837539196
0.072149031 -0.020721607 0.075401708
0.087687902 -0.016340533 0.053266317
0.064722188 -0.020557139 0.078426369
0.090045862 -0.012050073 0.035374664
0.063928202 -0.018684452 0.082477190
0.064492643 -0.018062783 0.078960486
0.246133685 0.017691325 0.077510826
0.024709310 -0.059054736 0.050709784
0.037247121 -0.042237956 0.049979404
0.028168997 -0.077045999 0.101391941
0.044027507 -0.092809685 0.068415217
0.231564745 -0.174812511 0.259556770
0.345056891 0.015358605 0.197406486
0.048968002 -0.065068595 0.100748844
0.091895029 -0.030712621 0.107895322
0.035385024 -0.079545937 0.075989261
0.118052527 -0.028684709 0.051657472
0.931341410 -0.764458358 0.309769958
0.095652826 0.059102327 0.068887100
0.082902156 -0.035325125 0.035420708
0.057993583 -0.068245284 0.037838258
0.050377153 -0.045333579 0.054113790
0.059863832 -0.064481959 0.030808825
0.734442949 1.211282492 2.699923515
0.069204725 0.133653104 0.036113668
0.041839242 -0.067961834 0.075262107
0.026393844 -0.041364554 0.053472660
0.035829432 -0.041396867 0.024581587
0.060906406 -0.063901320 0.034178507
1.109697819 0.945074201 1.168201089
0.082403921 -0.035541587 0.030535297
0.086906441 -0.029378871 0.029707920
-0.043031123 -0.044621434 0.131460428
0.068706572 -0.071824990 0.158571199
-0.042579912 -0.044121947 0.130055144
0.109624378 -0.044449750 0.077931292
0.025503337 -0.059134696 0.051524885
0.073743261 -0.023970122 0.094854280
1.316411734 0.939960539 0.834175229
0.381317675 0.029976765 0.103258856
0.171250746 -0.099787205 0.168045714
0.096196599 -0.049771771 0.074514173
0.095713630 -0.049877904 0.074123204
0.112319306 -0.011678978 0.043305196
0.014176191 -0.061199553 0.066454351
0.028945325 -0.067834266 0.067499250
0.028046500 -0.075810716 0.067039423
0.018996425 -0.062127136 0.067959867
0.105342105 -0.037704971 0.055353831
0.110906236 -0.017076135 0.032292292
0.041418463 -0.063139506 0.083040141
0.062991671 -0.059458442 0.090517089
0.019222466 -0.069099396 0.057739895
0.029937314 -0.067929611 0.063978896
0.055082131 -0.030695220 0.112484910
0.059270822 -0.066621616 0.079270832
0.083283640 -0.037468616 0.092145152
0.081502259 -0.049862765 0.081098951
0.102689303 0.131594613 0.350355774
0.059724730 -0.067146733 0.079876766
0.081724174 -0.050018787 0.081318282
0.075674780 -0.062030531 0.100320868
-0.001432532 -0.048755717 0.048648756
0.018603958 -0.046579439 0.089293912
0.006022872 -0.051520053 0.073349103
0.096059509 -0.048277892 0.072857715
0.074533209 -0.057022177 0.077923790
0.425000995 -0.055787154 0.185216978
0.062046017 -0.042051509 0.169910610
0.457031131 -0.055866402 0.437007785
0.026111981 -0.034138799 0.039059591
0.645191550 0.566081226 1.155919790
0.463291854 -0.005021003 0.187087029
-0.040025111 -0.182494953 0.104047790
0.203030661 -0.033779584 0.095645323
0.119461820 -0.013994205 0.033633646
-0.020524353 -0.038889796 0.040220533
0.108533047 -0.010261519 0.020759679
0.099177420 -0.048020374 0.105861954
0.025913196 -0.078062132 0.088092610
0.032399267 -0.093552724 0.070171520
0.104541965 -0.034333892 0.113152474
0.124181174 -0.028447194 0.048033644
0.064343370 -0.056757160 0.118046135
0.060943827 -0.069338307 0.106009893
0.820425332 2.702925205 2.925281525
0.405495405 -0.001418454 0.156885192
0.389089644 0.030857289 0.105384134
0.497182697 -0.014754820 1.876491666
1.331377745 0.713559031 1.093478680
0.007899890 -0.079599939 0.110976644
0.069588736 -0.128857955 0.084955439
-0.003926706 -0.086236633 0.087902367
0.085728250 -0.099157840 0.115709364
0.139599085 -0.022692068 0.038901616
0.138438463 -0.032759570 0.040030625
0.084753729 -0.097728327 0.114514589
0.117062859 -0.042478155 0.138437778
0.140068144 -0.023725685 0.040173382
0.076926745 -0.092109457 0.126513377
0.081894018 -0.082925811 0.128504246
-0.009132490 -0.086590201 0.071041375
-0.030167047 -0.057333663 0.061082494
0.055692576 -0.078236111 0.137038141
0.067894682 -0.088212289 0.131575346
0.117934130 -0.141787916 0.082278810
0.008144530 -0.082235165 0.114412978
0.140866131 -0.054147240 0.074942395
0.141018659 -0.036368694 0.045739908
-0.029211923 -0.057973221 0.073642276
-0.009295920 -0.070113637 0.107133962
0.021674238 -0.103891142 0.091037758
-0.027494965 -0.064963482 0.090893403
0.145104021 -0.034855533 0.056635927
0.002559373 -0.065065250 0.134072334
0.176542044 -0.106962509 0.158655390
0.201339215 -0.039687946 0.219895333
0.194872275 -0.069416866 0.102017686
0.190630361 -0.049574319 0.078605570
0.151815176 -0.014500489 0.571639478
0.163867980 -0.096979946 0.161855504
0.204243153 -0.057191908 0.187643662
0.128866553 -0.089191072 0.249141023
0.243874639 0.011340971 0.024211755
-0.056958061 -0.112900533 0.082920782
0.160786763 -0.092579789 0.190816894
0.090957619 0.216679752 0.641507983
0.194057345 -0.052516904 0.081779845
0.197799236 -0.038757142 0.213835448
0.255176872 -0.027083553 0.074902408
-0.135245770 -0.212812126 0.115468025
0.289597154 -0.081416525 0.371146321
0.385080040 0.016304489 0.453227848
0.766106784 0.048959218 0.547379851
0.319960564 -0.051937863 0.196574509
0.296792328 -0.034379087 0.118801698
0.279987067 -0.033341788 0.085725851
0.206659764 0.007938701 0.019885328
-0.135962248 -0.081133224 0.188842937
0.096561313 -0.114486679 0.062744893
0.206368819 -0.191113278 0.029815730
0.322015136 -0.040327720 0.182861760
0.192853898 -0.050865509 0.054814726
0.224674135 -0.012797489 0.044571232
0.279835284 -0.104451939 0.203413710
-0.136748120 -0.212881252 0.115516394
0.240604565 0.019558705 0.076594308
0.298531830 -0.075354591 0.274277091
0.317085594 -0.054103602 0.344967067
0.322988629 -0.072128311 0.344323516
-0.133015946 -0.210105434 0.113127127
0.258846164 0.020836668 0.096928798
0.024983903 -0.033693518 0.037473939
1.098993421 0.940100133 1.887725353
1.160220981 0.580380023 1.077176213
0.264873296 0.012502877 0.024818489
0.555004239 0.614974320 1.935497403
0.277074724 0.029889226 0.024609569
0.524553955 -0.028492557 1.993234754
0.255778581 0.019476894 0.095811062
0.318357408 0.007765774 0.083236441
0.350929856 0.007273913 0.095716141
0.234113023 0.004529002 0.026618198
-0.001887768 0.141966522 0.730765522
-0.152646273 -0.279917985 0.066068791
0.005192547 -0.007781838 0.041426916
0.347597837 -0.044532068 0.084478311
0.433560342 -0.055415452 0.419137537
3.700869322 4.176065922 11.055075645
0.461869687 0.045417447 0.325960100
0.317016095 0.003200338 0.126178429
0.515552223 0.250437260 0.476090223
-0.212903678 -0.288858056 0.177830502
0.293970913 -0.005810703 0.142292604
-0.137011006 -0.256501198 0.172045499
-0.074110478 0.032754850 0.055878904
0.200480908 -0.384825617 0.183320209
-0.127222747 -0.216905475 0.047046077
0.312937796 0.082305610 0.428347379
0.317235976 -0.093189940 0.259774446
0.042012598 0.021573069 0.032532413
-0.005837622 0.048585564 0.138537169
-0.005139293 0.042930041 0.124487899
0.029137759 -0.062774017 0.022139719
-0.012177086 -0.157375962 0.075425357
0.065412574 -0.165038317 0.200173885
0.072400041 -0.007749159 0.015261242
0.026900556 0.029028950 0.075424425
-0.035744786 -0.101271965 0.292044610
0.137933165 -0.064280257 0.473951489
0.040327772 -0.006089953 0.041667290
0.100549348 -0.012629100 0.030312316
0.019952262 -0.157299295 0.048307505
0.070206575 -0.007160398 0.024081027
0.013910128 0.019368516 0.049265455
-0.127164647 0.003787800 0.056553435
-0.239092842 0.218057469 0.003247322
0.003318573 0.057109702 0.194287345
0.023579406 -0.014936734 0.027964085
-0.000875786 0.036701337 0.138742313
0.004221399 0.033971582 0.112252794
0.018163389 0.029486666 0.071183063
0.093603820 -0.003991039 0.028406281
0.422742099 -0.515783906 0.261000931
0.195661917 -0.021450596 0.035737589
0.063957900 0.056484938 0.031264283
0.122948632 -0.017200563 0.030820554
0.003628603 -0.003402390 0.070293777
0.197911099 0.492187440 0.811084986
0.208529577 0.130371630 0.002202785
0.014153215 -0.034359608 0.031358868
0.085581869 -0.007582718 0.024583012
1.480952144 1.244432569 0.706362069
0.027510777 -0.058456566 0.026416376
1.002117276 0.045831539 0.486398637
0.101446316 -0.054133274 0.010095058
0.028978093 0.024244489 0.042801064
0.032116018 -0.183569491 0.036377795
0.044967614 0.038882300 0.021362158
2.871936560 -0.851116955 2.370618343
0.326528817 -0.047625899 0.109722808
0.271807611 -0.098054789 0.286480784
0.264707834 -0.080365278 0.341694802
0.287334234 -0.029697476 0.114626616
0.335718334 -0.048040409 0.332102656
0.041390177 0.009176199 0.046440471
0.198124558 0.003264263 0.022836743
-0.117904760 -0.166289061 0.132188320
0.208649516 -0.024022261 0.031561870
0.607611895 0.094681829 0.036094029
