ply
format ascii 1.0
element vertex 1274
property float x
property float y
property float z
end_header
-0.302696288 0.758054554 -0.361617774
-0.046378754 1.101301074 -0.470051169
-1.269964457 1.262339592 0.173121721
0.818136275 -0.118364006 -0.376614988
-2.434963226 10.005587578 0.341007203
1.589576125 -6.632339954 0.020038977
0.940729141 -0.098100416 -0.359259158
-0.621666849 -2.037571192 -1.061516881
-0.370669961 0.969052792 -0.553878188
-0.064785443 1.480880380 -0.211599454
0.100215375 1.245611191 -0.681413889
0.197215781 1.318419218 -0.337588578
0.156674296 1.297891021 -0.203825071
0.098499700 1.335035682 -0.202846065
0.116278224 1.273792863 -0.314065039
-26.882785797 55.747653961 -5.726600647
-2.877148628 0.593780935 1.951009631
-5.033804893 0.871169984 1.522369981
-0.485136330 1.244626760 1.492867947
-3.174268723 2.103694916 0.025517572
0.097993851 0.735479534 -0.766687632
11.533993721 22.944677353 -13.641285896
0.732201636 0.399067789 -1.272282004
0.334584206 1.426358700 -0.770698667
0.390119880 0.711026311 -0.699631214
0.667889476 0.361983120 -0.463287383
0.393510997 0.692730606 -1.038857818
-0.510426581 3.136765242 -1.498020649
-1.357859612 3.847439051 1.175832033
-0.050080948 2.471491337 -0.441055506
0.151961282 1.089587092 -0.985594749
-8.196612358 18.548446655 0.875277400
0.486881435 0.933925569 -0.411873996
2.288908720 0.267101973 1.015357018
5.117117405 1.918240666 -0.625091732
2.588522434 -0.116997592 1.590111613
7.291119099 -4.748147011 1.105079532
5.532007217 -0.642126739 -0.139067575
2.309966564 0.740954936 -0.275786340
-0.833420932 -0.050127696 -0.950739503
-5.536954403 -2.138482332 1.361519933
-4.581755161 0.366691977 0.196025103
-3.359225988 -2.305754662 0.303341955
0.196202114 1.328190088 -0.340464324
1.840946078 0.201215193 -1.469213367
0.156903267 1.262577057 -0.394305229
-3.583407640 -1.114392281 -0.102767810
-4.086583614 1.426275134 0.680218577
-5.146982193 1.623383880 0.936748087
0.057817712 0.120882973 -0.310850292
0.012690254 -0.046573926 -0.383851588
0.051751785 0.297220826 -0.236950517
-1.295662999 0.032601990 -0.974100709
0.619156182 -2.115039349 1.728862643
2.075344086 0.958667636 -0.941665411
-2.291208506 -4.698444366 1.519796491
-0.430204779 -0.692250907 0.046496637
1.757457376 -8.145689964 1.082709908
2.872869968 0.259441644 -0.778888285
3.149119854 0.349445343 -0.414742976
0.019080725 -0.047631443 -0.377118051
-0.474786609 1.000079989 -0.984327376
-0.474066705 1.006380558 -0.998744369
3.406741381 0.319441974 1.474150300
5.680872917 -0.761522889 -0.018194355
5.262100220 0.721238554 1.470378757
6.071575165 1.878329277 1.252500534
-1.024175167 1.844171643 -0.346291363
-0.720288992 -0.135573074 -1.002736926
-1.179219007 -0.228741914 -0.312576264
12.211913109 5.713767052 -0.874775827
-4.624458790 -0.077945776 0.167490989
-1.255033374 2.267738581 0.219238430
-3.474100351 2.856564522 1.696352482
-5.583374500 6.296158314 1.621655226
-0.745201707 -1.870420575 -0.187061742
1.389424324 -0.094064675 -0.461368799
-2.370734453 -0.602788210 0.169436276
1.062895298 -1.329366803 -0.455262929
-0.692503750 1.006551981 -1.638656855
-0.078409918 0.761994720 -0.361568272
-0.811702549 -0.159667805 -0.376613110
-4.308784485 -0.496347815 0.351130337
-0.094566830 1.236203432 -0.353432238
0.021932675 1.025632858 -0.400427759
-1.087803125 -2.082966089 1.527377725
-1.808245063 0.244970873 -0.461730450
-1.275816441 -0.739549339 -0.697812140
0.179993957 0.089899123 -0.921011209
1.340611100 -0.136815026 -0.218439043
-1.433489442 0.294611752 -0.312392145
-0.840647817 -6.933898926 1.015993834
0.398607850 0.216228977 -0.970760822
-4.440895081 -0.085099488 0.227242291
-6.375817299 0.680656910 0.908662498
-0.099754348 -4.600341320 1.248884439
-0.233939111 -1.471840143 -0.748031080
1.388485193 -1.283893466 -0.399952054
1.014633179 -0.406875610 -0.846593559
-1.198133111 0.155910462 -0.872311652
-0.091198646 1.241295576 -0.355147749
0.744398117 -1.712437868 -0.128474727
2.223081827 0.696048975 -0.810818315
-1.954550385 2.181131601 0.212038934
0.872578800 -0.194168001 -0.835231066
0.185430840 -0.092352375 1.283298612
0.792967558 -0.308783740 -0.338393599
-1.997160912 1.379912496 -0.349037856
0.201719806 1.244266152 -0.468547970
0.154113397 1.512243986 -0.175825566
-1.007590413 -0.862851322 -0.405844510
-1.378274083 0.554420948 -1.588616371
0.953877628 0.732053101 -0.760454357
0.931218386 2.161237955 -0.521975517
0.066614591 -2.954241276 -1.299609184
2.214867115 1.702038288 1.353043199
-0.958119869 -0.203845471 -0.407425761
-1.750421166 -0.300424725 0.145696357
-0.325297236 0.764473140 -0.356279075
-1.332777143 0.032618906 -0.971174181
6.052372932 -3.777657747 0.016810726
0.305911064 -0.824041486 1.868309498
5.929322243 -3.755300283 0.087516770
1.800698400 -1.281580925 -0.012181800
-1.056246996 -2.483329535 -0.038857538
-1.592764258 0.339852124 -0.344926417
1.835153341 -0.800709069 -0.077113122
-0.546387076 1.005451322 -0.364138693
-3.623601913 -0.547252059 -0.219571933
-0.292233229 0.805596113 -0.337586969
-5.039829731 1.598369002 0.643477499
1.272194624 0.260526448 -1.615749955
0.068788506 0.488208294 -0.255078912
1.759843111 -0.514506042 -0.659387350
-1.747207522 -0.288774788 0.145382032
-2.463887215 -1.440518498 1.368913412
-2.673880816 -3.553099632 1.411199927
-1.591699958 -2.782687902 -1.058567524
-0.229025558 0.561245799 -0.368162870
1.345906854 0.365821660 -0.958776653
-7.219874859 -0.468333811 1.361093640
1.244677544 1.369157076 -0.912245750
0.727980554 -0.082154632 -0.345494747
-4.799376965 0.612743914 -0.216951385
-3.105810642 1.155126452 -0.851727486
-4.351637840 -0.532587826 0.377104521
-0.087421186 1.259519100 -0.362695217
-0.261150867 0.630193770 -0.367623270
0.751277030 0.898988068 1.002037168
-7.738123417 -1.307969451 -1.127270341
4.362518787 -4.841580391 1.828929424
28.112491608 -5.437858105 -0.583428264
11.760634422 -70.131072998 30.066867828
0.171539366 -1.549251199 -0.826992512
0.127728537 0.258771598 -1.444164753
-6.641791344 -0.143901423 1.484265685
-1.166754961 -2.462056398 1.356595278
-2.560320377 2.603850365 0.448202193
-1.073645830 -1.761668563 -0.299545586
0.625686646 -5.698898792 0.075065084
0.572916806 -1.659937620 -0.429218590
-1.405709028 -1.817335844 1.805387616
-3.447840452 -2.452461481 1.416158080
-1.742364645 0.263895065 -0.608966470
-3.063504934 -3.280177832 1.495263815
-2.280270815 0.297110468 -0.980607569
-0.831940651 -0.948991239 -0.346052349
0.078970462 0.464351416 -0.366421580
0.453792006 0.189179823 -0.367808193
-4.703355312 0.874739289 0.516791165
-1.922423363 1.588637471 -0.494945258
-0.723619163 -1.923641205 -0.159839347
-0.156912714 -2.286542654 -0.290070266
-0.559192657 -3.136837006 0.046058208
-0.049904481 0.529667675 -0.433134168
-2.739068508 -2.868538857 0.625338972
-0.557401180 2.719260693 -0.237739921
-0.083192863 1.037461281 -1.160423398
-2.115956545 -3.946539164 0.831866622
-0.038024060 0.661959171 -0.361558378
-1.261560798 0.026409147 -0.965570748
-0.058623370 0.732844114 -0.364421755
0.557725728 -1.175237775 -0.330776542
0.148237243 -1.640304327 -0.377956450
0.546145201 -1.297283769 -0.769879401
-1.995579958 1.585094452 -0.695077658
0.227072388 1.400362730 -0.314934611
-0.608497083 0.099677630 0.000512613
0.956183851 -1.149677038 -0.641639113
-2.325485229 -3.078513145 1.419481397
0.247086242 1.439247012 -0.082048886
0.143516019 1.270668864 -0.366294414
0.123559952 1.237311125 -0.769251883
0.156340674 1.297306418 -0.202154636
0.174458474 1.324693680 -0.307488531
0.220360905 -1.481719613 -0.744533420
-0.788176000 -0.724004984 -0.416530192
-7.165525436 -1.599176288 1.243873119
-0.200181186 -1.360918522 -0.695226252
-7.214520931 4.629062176 1.119236350
-3.232413530 -4.150591373 -0.296368241
-0.698594809 -1.954568505 -0.427336574
-2.570861816 0.971275926 0.039790843
5.334600925 0.568132460 0.032622807
-0.939101279 -0.085671715 -1.005695820
-0.843711615 0.170588866 -0.944896638
-3.268836260 3.424845934 0.131306082
0.007785773 0.435630262 -0.243378386
-0.206866175 0.809971511 -0.361759156
-2.766737461 0.573142529 1.902001739
0.040073518 1.051658511 -1.435988784
2.340058804 -0.351704329 -0.285906106
0.063648440 0.902334869 -0.375041932
1.679082751 2.334958553 -0.802672565
-1.945068836 -0.287502885 1.891216397
-0.307484746 0.761289775 -0.364007056
-1.338780403 1.600437045 -0.994175553
0.144013733 -1.592235446 -0.902012527
-2.244333744 0.306003988 -0.973017693
-3.135604143 -2.243295431 -0.100267805
0.023992138 0.021964503 -0.522462189
2.533939123 1.806207776 1.367430687
3.784108639 1.785866141 -0.676563561
0.174789801 0.107318908 -0.370912224
0.168796182 1.172917128 -0.430521697
17.997289658 -6.807859898 -14.329154015
0.193802238 1.252346754 -0.451983809
0.097999886 1.360337853 0.044617988
0.231175452 0.801971793 -0.976240158
0.258889616 0.970473945 -2.260348320
0.171125770 1.398813963 -0.246852964
0.801170528 -0.100879028 -0.975974679
-5.215568066 1.674888015 0.679392576
-2.144978762 0.251168579 -0.099941730
-3.206330776 6.356912136 -0.523778677
-0.635138571 1.704885602 1.859850287
-0.001997667 2.344280005 -0.643366218
0.091281421 7.181170464 1.638774037
-0.011049439 1.586216092 -0.386785895
-0.531574309 1.002897143 -0.356782049
3.733925819 -6.083724022 0.247668177
-3.126207113 -3.848593712 0.390320718
0.170761004 0.095384136 -0.365553796
-1.306333065 0.016224645 -0.982458055
-6.287123203 -4.057363987 1.354999781
-7.351826668 2.570374250 1.209154963
-3.092887640 0.605243266 -0.719698906
-1.899549842 1.393662214 -0.070949443
-3.241395950 0.604525149 -0.749309838
-3.509881020 -2.800077200 -0.105569951
0.451976240 0.179087237 -0.377587587
-0.043032613 0.402497739 -0.273638457
-5.230007648 1.389170766 1.540748596
6.205015182 -3.915167570 0.593453109
4.228179455 -1.012897730 1.504244924
2.392872334 1.456128359 -0.397499382
0.051025186 0.088296302 -0.368704915
-4.850026608 0.618505657 -0.214323893
-1.181756377 1.550420523 -0.183041126
-1.947397709 0.128532439 -0.822638988
-2.157991171 -0.461321294 2.075348854
-0.861072540 -0.252175599 -0.402174562
-7.848034859 0.197506085 1.565567851
-4.040154934 0.504934549 -0.409573883
-3.181083441 -2.203781128 0.291435957
5.983411312 -5.626853466 0.831075013
0.091769159 0.294856787 -0.250398278
-4.210333824 0.480399996 -0.457311362
-6.416896343 -0.148947418 1.441783667
-2.169775963 -3.665438175 -1.000675321
-4.314687252 -3.971792459 1.290648103
-3.346471310 0.629574776 -0.988834798
-5.327105999 1.399457455 0.714527547
36.738235474 -8.685773849 -14.007838249
-1.030574918 0.168426499 -0.827541053
-0.928785264 5.086083889 0.192400470
-2.714517117 1.606520057 -1.011881351
-2.719439745 -2.830942392 -0.198845923
-1.808349967 -16.761875153 -2.214229107
-0.268707961 0.692147017 -0.361538887
-6.947679996 -1.543826222 1.237423778
-7.032425880 -1.898970723 1.005200863
-1.365726113 0.050504386 -0.394311875
-0.867951095 -1.794792533 -1.061506748
-1.433233261 0.554399848 -1.652352333
0.149950549 -3.236165047 1.614638209
-2.256884336 -3.809448719 -0.291463047
-2.403584003 -2.749162197 0.337106764
-5.159223557 0.664719939 1.656367302
-0.729491115 0.287735432 -0.989182055
-0.245838776 -1.410161734 -0.741405904
-2.938689947 -3.108956099 0.212257326
-0.742884576 -2.701587200 -0.272003293
-0.320081979 4.076221943 -5.005192280
0.742870271 0.916724801 -0.727335155
0.060476713 1.618496299 -0.323800832
-0.281730324 1.410730124 -0.170014918
-0.436724007 -0.902543187 -0.875026643
0.501806200 -1.117486238 0.023395546
-1.180870175 2.325710535 -0.008007252
-2.165328979 0.238188699 -0.129872829
-1.043127418 2.074922800 0.155513108
-3.285239220 -0.200558245 1.465568781
-0.234674782 0.795182943 -0.363603294
5.247391701 -3.233340740 1.489417791
4.650793552 -3.141891956 1.258870363
-3.105750799 1.889879704 -1.165780067
-1.325218201 -0.074743979 -0.606987834
-1.349585533 0.017006747 -0.942586184
1.560911179 -2.639869452 -0.706354201
0.403610647 -1.903954506 -0.392340302
-1.581118107 0.274729311 -0.383327216
-0.073236331 2.370059490 -0.424839497
-0.133075774 0.606380343 -0.362739652
0.190249339 0.104510449 -0.910547197
1.905141711 2.259601355 -0.888003349
-0.157919005 0.805974603 -0.396386653
0.360982567 0.098374560 -1.025617123
0.057822544 2.860591888 -1.028582811
-0.607100427 -2.236393452 -0.298489094
0.558621347 -1.190901875 -0.326848298
-0.760971189 -2.420602560 -0.108258933
0.856327116 0.468519181 -1.908810735
1.357703567 -1.237859845 -0.376114488
-0.036524843 0.793601871 -0.361360043
4.569159031 3.845150709 -0.819665968
2.351903200 -0.737651646 -0.311336666
1.605816722 3.699505806 0.182208434
-0.032156814 0.393686712 -0.371011108
-22.064205170 15.605088234 0.497939259
0.952943444 2.434056997 -0.164080739
0.514913261 -1.147050023 -0.302414149
0.387564033 0.957142472 -0.739322960
0.490059972 0.710048258 -2.300205708
-2.989932537 -2.419207096 0.418021977
1.330762625 0.446122050 -1.961473823
-0.779688835 -0.597087860 -0.933307052
0.010458508 -0.022923013 -0.383041501
-0.467846811 1.001235008 -0.980200529
1.015419841 3.777472019 0.143530026
-0.020791067 0.431727767 -0.389730573
-4.849756718 0.231012389 0.016425937
-2.312033176 -4.858493805 1.464465499
-2.129503250 1.522988200 -0.562149346
-4.501052380 0.609847724 1.451189876
0.515600860 0.771918416 -0.374290138
-0.969872117 -1.704428434 -0.546449244
-1.161910892 -2.500598669 1.382932067
1.804122806 -0.752755940 -0.309437335
-1.199467659 -5.395133972 1.363425136
-1.075114846 -1.913547635 -0.626550317
-1.318158388 -0.038140159 -0.616766453
1.957857013 -0.529540420 -0.954804063
0.104233555 0.382457733 0.493290842
5.785771370 5.119590759 1.581613541
5.078104973 1.765718222 -0.967966259
2.182911634 0.952273846 -0.281575918
17.691228867 5.457367420 0.501778483
-1.625739932 -5.217572689 1.204114437
-1.101499081 -3.028099298 0.007100326
-6.252408504 1.410901189 0.959695756
-1.073891521 -1.939799786 -0.626986623
0.970829606 -0.397561073 -1.359778762
-2.147279263 0.253221363 -0.621258974
-1.366988420 -1.486271739 1.665469050
-1.195964575 -2.450080395 1.342244148
0.995142698 -3.710626364 -1.459549785
-0.040200446 1.312768102 -0.249812678
-0.079003438 0.793682337 -0.358733267
2.592431784 -1.600186229 -0.438644201
-10.075057983 16.362241745 -0.072853930
-7.028606892 8.960921288 1.736806989
2.276223421 -0.359909773 -0.298808277
2.481706858 -0.308258206 -0.961150885
2.729454517 1.168739319 1.362860322
2.618208408 0.047542367 -0.670484781
3.879680157 -0.718196929 1.445681691
5.610554218 3.909170866 -0.802682877
4.158376694 -3.135002851 -0.058560558
2.150514364 0.995461702 -0.274795085
-1.323407292 -0.064127125 -0.750031590
-2.182004929 -0.028835149 -0.276950628
-4.676937580 -4.393074036 1.405675054
-1.715722561 -2.800409317 -0.781623960
-1.187127471 -0.261613339 -0.901626885
-1.720645428 -0.301289767 0.158561945
0.470770568 -0.053073224 -0.779157758
-1.022348166 -2.186666012 -0.856393158
-1.228474379 1.649758697 -0.001479481
2.557909250 0.958475947 -0.313195318
0.000460479 -2.885741472 1.492494345
5.124844074 1.134363651 -0.607511282
-2.148365021 -0.410788268 0.158191592
1.724606872 -0.444324404 -0.612587869
2.053478479 -0.170468628 -0.480722994
-2.191111803 0.207864538 -0.080517657
-2.229390383 0.200210765 -0.052315067
0.161107898 -1.444285154 -0.568916142
-0.052280761 -1.811652541 -0.381413877
-1.702535868 1.893744826 -0.029262621
-3.515439034 -2.579225063 -0.033119522
-3.262278557 -2.318369627 0.299011230
-0.822382450 -0.184174448 -0.358915120
-7.196330070 16.944164276 3.738568068
-0.598650753 0.425393820 1.381330013
-1.069346189 0.026912829 -0.370932013
-1.665224552 -1.672178388 1.801063180
-0.023300445 -4.639012814 1.275398850
-4.479843616 -0.410076469 1.456236124
-0.888650239 -6.935023308 1.305665016
-1.379563928 0.324723363 -0.767134070
-0.108399734 1.178204536 -0.531201899
2.228935242 -1.434028745 -0.008046044
2.984148741 -0.024541602 -0.460536242
-2.595550537 -3.462693214 1.344361782
-2.175362587 1.540986776 -0.571979880
-2.169384956 0.268274635 -0.648633897
-2.971012115 -3.134804964 0.651929736
-0.907671452 -0.813759029 -0.371006995
2.860415697 -0.379083127 -0.099571817
2.495290279 0.365815669 -0.475167423
-3.259187698 -2.427299023 0.253752321
-2.769137383 -3.379467249 0.576827168
-0.113478787 0.859592199 -0.362801254
-1.083227873 -2.182674408 1.576439381
0.129621014 0.371428311 -0.352336824
-2.535408258 -3.423038244 1.323329210
-2.294883490 -4.698947906 0.996932209
-4.158777237 -0.473638892 0.332605302
-1.711879373 1.686407685 -0.127525076
-0.148340449 0.814682543 -0.363132089
0.947346270 -0.140916035 -0.334396154
-2.245707750 -0.560018122 1.434909463
-0.714255035 -2.368730545 -0.078977980
0.738049984 -1.106096983 -0.673065305
-0.538874090 -2.850449562 0.015172488
-2.528800726 -0.070008710 -0.162379593
-0.609915674 -2.295467377 -0.255896926
-2.230963945 -4.141756535 0.622710347
-1.323673248 -0.036514103 -0.396775484
-2.993322372 -4.326329231 1.360795259
-0.769956231 -0.526627302 -0.880753100
-2.305717468 -4.895839214 0.801981151
-0.067909479 0.754100442 -0.364278257
-2.388643265 -4.061587811 -0.360695928
-0.785496950 -0.527623653 -0.868744016
1.184596539 0.558557808 -0.958936334
1.916432500 0.377714097 -0.959455490
-2.086402178 -3.485142469 -0.270365655
0.442369044 0.000751771 -1.211389899
-0.015800621 0.794302404 -0.347076744
0.396151721 0.211175174 -1.003586531
-1.021733999 -0.401102036 -0.433338255
-2.497515678 0.722694993 1.754228234
2.861775637 1.640335560 1.537712812
-1.323788524 5.397192955 0.181298509
0.983099282 -1.215600133 -0.153374508
-2.455665827 -2.510354042 -0.180232838
0.904705703 -0.298144221 -0.908076584
0.776431024 -0.275649309 -0.789473355
3.191342354 -0.020637374 1.221991420
-0.188502178 0.760315239 -0.233407378
-0.573110878 2.858908653 -0.287839919
-0.021985101 2.286392689 -0.618632197
-0.346472174 1.507696033 -1.071733952
0.167339876 0.906770408 -1.235691547
0.370974272 -0.439407259 -0.316019446
4.729103088 1.720590472 -1.721960664
1.447182059 0.000282465 -0.342507422
0.479824126 2.680757046 -0.210893020
-0.120309666 0.846775353 -0.361226469
-0.103463441 2.289434671 -0.489933878
0.451102942 2.022984028 -0.944857657
0.447271287 0.629523337 -0.876177967
0.001275422 0.002734039 -0.374559462
2.892365456 0.872162402 -1.051640987
2.230772734 0.716762483 -0.819360554
-0.465939820 0.693565071 -0.408567548
0.678003788 0.138157636 -0.824169457
-2.466718435 -0.706778646 -0.067768827
-0.589156389 -0.180079699 -0.724698961
-3.281960249 -1.070545435 1.456920981
-0.582119644 -0.268616349 0.070393562
-2.643326998 -3.278078079 -0.325925767
-8.982561111 3.400673866 1.521850467
-1.952286720 0.668075502 -1.193683267
18.203464508 9.832969666 -78.307205200
0.066855587 1.505093336 -0.389377326
0.566885114 0.430074900 -1.130420327
0.796492696 0.536865354 -1.712553024
0.506393313 0.530377686 -1.004037023
0.481163025 0.530974925 -1.325100303
0.161186561 0.415811896 -0.270356953
1.504069567 -0.027081257 -0.363643706
-3.571871281 0.473909318 -0.872024119
-4.331424236 0.165595412 -0.051197406
-3.124717712 1.873956800 -1.164251447
-4.393515110 -0.054835506 0.199545398
-2.207792044 0.249415174 -0.686173677
6.533341408 -5.578212261 1.124912024
-0.542774141 1.005636930 -0.362961531
1.032859325 -0.428347528 -0.887976408
-0.926927328 -0.083463080 -0.374905199
0.958808482 -1.526142120 -2.571283817
-0.061163545 0.361994743 -0.300684780
-0.351589024 1.092415690 -0.551285326
-0.986178517 1.478071690 -1.127659202
-12.626006126 2.820662260 0.460274398
0.541436970 -1.166550279 -0.318856895
0.286075681 -0.836455703 1.895858765
-1.877517462 0.396027237 -0.274830401
-1.679544806 -1.809746861 1.870403528
-2.663697720 -0.835134447 -0.088339992
0.930849075 -0.320071012 -0.918765604
-4.993337631 -1.010141373 -0.823645830
4.782490730 1.686692476 0.834560752
-0.375302911 -0.434047788 -0.986132622
0.287240952 -0.808196247 1.843109250
0.716399133 2.815653563 -0.100765184
5.919843197 -0.887145460 0.027858233
4.907181740 1.142416596 0.573207438
-0.179401234 0.341783553 -0.701192021
-0.265819997 0.788805902 -0.354038268
1.581384301 3.464651585 0.003422276
-0.023260457 0.654188275 -0.365836233
0.927311957 3.317691326 0.150455400
0.194617689 0.388622344 -3.113124609
-0.777977109 1.890974402 -0.226185694
1.618799448 2.189774275 -0.542469382
1.129490852 3.010611296 -0.227581203
1.935827255 -0.107673608 -0.497776896
0.065081120 -0.033578310 -0.931877553
0.222095609 0.341652840 -0.636375844
-0.208751768 0.572474897 -0.360130608
-2.253695726 1.653796315 -0.949029028
-2.737454891 5.118777275 1.699596405
-1.201412916 0.548272789 1.818920255
0.181770951 1.140067935 0.199094474
5.641789436 -14.074700356 3.874010086
0.085090317 2.108506203 -2.162847042
0.105917692 0.512849331 -0.544797480
0.127644002 0.391653299 -0.232399404
2.992244244 0.006214027 -0.499594897
5.849606037 -0.953618884 0.165477917
5.180283546 2.296209335 0.785276651
-1.071635723 -2.527284384 -0.038495217
2.779308081 1.901103616 1.388635874
3.878047943 0.678902984 -1.137089014
0.690506995 2.779548883 -0.099557810
-0.324376732 1.118807435 -0.332130402
-2.243251324 -3.895234108 -0.161993846
6.991777420 -0.949362040 -0.241144255
6.404186249 -4.106378555 0.184103891
2.269369125 1.402110815 -0.911984205
2.372640848 -0.191790015 -0.072976828
2.265504122 0.925726891 -0.853057981
4.705062389 1.143228889 0.550912201
-0.232705906 -1.405576944 -0.964467883
1.009633183 -0.022331294 -0.333881557
6.878854275 -5.956764698 1.174667120
0.101365574 -8.720864296 0.599886119
-0.378510207 0.161049411 0.501866043
0.637116313 -1.598150730 0.011628165
-0.016242692 0.295658767 -0.367331058
0.058714755 -1.312225342 -0.749441981
-1.105668664 0.008232654 -0.972944677
0.357095361 0.434766710 -0.379246950
-0.512182713 -0.371402770 -0.900330484
0.139525816 -1.458262086 -0.931469500
0.225889027 0.317640245 -0.738994718
0.006215380 0.123857550 -0.362729281
-0.290648758 0.781468391 -0.362393260
-0.475778788 0.996793389 -0.502633214
4.764298439 1.804076433 -0.608590782
-1.722108006 -1.851030588 1.896541834
-6.820779800 -1.009072781 -1.027392387
-0.222472042 0.812708318 -0.359828562
-0.372436523 0.970383704 -0.556759119
-0.945570290 -0.161657289 -1.025255322
-0.858341515 0.016945399 -0.876092911
3.252626896 -1.526432276 -0.169056728
2.679768324 0.990596890 -0.324446917
3.704964161 -1.373819113 -0.195001736
-0.991600513 -0.160260126 -0.948088527
-2.780338526 -2.475713968 -2.985194445
-0.579023719 -0.689579427 -0.447265297
-0.225125849 0.568105876 -0.370480657
0.967018783 0.000532006 -0.877686083
1.428363442 0.143578082 -0.381059647
0.544265687 -0.652098000 1.803547978
2.288197279 -0.376477420 -0.290754586
0.324318826 -0.821076572 1.875747442
1.016476512 -6.991940498 0.205411568
0.007156631 0.135555923 -0.331745416
-0.785386801 -0.361552894 -0.644811273
-0.070135579 -0.156449750 -0.600113869
0.327353269 -0.042935047 -0.454262584
0.284004420 -0.712779403 -0.364304662
1.928418756 0.371583611 -0.954262257
-0.042890117 1.150044680 -0.453645915
0.503711820 0.603235602 -0.302022576
0.657872200 -4.481922150 0.139899015
0.000724007 -4.605198860 1.292763472
-1.311814427 -0.039454855 -0.726841688
0.127145514 1.306054711 -0.173553437
0.166790903 1.330456257 -0.296017110
-0.193118513 -2.231489897 -0.297961622
-2.592915535 -3.098664522 0.680538177
6.165699959 -0.679683626 -0.165490732
0.208921120 0.773189425 -0.983370781
-3.187533140 0.433945596 -0.014857053
0.578110576 -1.313378811 -0.519722283
2.138813019 -0.899879694 1.419821024
0.031127207 0.378994048 -0.222286731
12.277544975 -19.962623596 -0.245851487
-0.074574776 -4.555957317 1.245397091
-1.100082636 -0.522446692 -0.749436498
-3.565815210 1.552892685 0.065122075
-8.301445007 0.184070140 1.670182109
-0.622272491 1.731964231 -0.361522317
0.278541803 3.368977308 0.270140469
0.003713401 0.049873274 -0.512509704
0.497542858 -0.576321781 1.795743585
0.459483802 2.961493015 -0.053979442
1.577212691 0.202534735 -0.133357346
2.737063408 1.882938504 1.396628737
2.744408131 1.890058994 1.387730122
2.661561728 -0.271608204 -0.327996820
2.685431242 -0.245130092 -0.594104648
3.331043482 -0.055983070 -0.509967446
1.789581060 -0.756124675 -0.314787239
2.200965405 -0.169003904 -0.983581364
2.066392660 -4.359821320 1.570672393
-4.685961246 -5.040425777 1.324648738
1.362077236 -5.164985180 0.240706339
0.683781445 0.114479348 -0.883274257
-2.249789476 -0.613162041 1.531599522
-0.118913457 0.846776962 -0.361874044
-1.631011248 -0.162047178 0.124623276
-2.016095638 -4.353986740 0.590070486
0.643319964 -4.257742405 0.145352900
0.382422835 1.967101812 -0.859103680
0.590652823 2.180311680 -1.037464738
0.703588903 1.035920262 -0.558832765
-0.141899198 1.466779709 -0.188749224
0.187885061 1.115653992 -0.116914637
-0.220626324 0.580674052 -0.366522968
-0.295392066 1.077794909 -0.381329805
0.013006745 1.175932884 -0.275163531
0.185010388 1.225863099 -0.107790992
0.131536469 1.249329686 -0.069222987
0.227750555 1.407557011 -0.315917850
1.080666423 0.124648929 -0.328324497
-1.312982082 -0.405520380 -0.405020952
3.831750870 -0.930348396 1.397512555
0.146179289 1.514187336 -0.168566972
-0.246517494 1.162510037 -0.357655376
-2.717981815 -3.197849751 0.651028514
0.171779364 -2.820053339 1.475899100
-0.582758486 -2.123624563 -0.340809196
-0.128424421 0.607084811 -0.366094589
-0.290481150 0.697649419 -0.366709411
-0.509440780 2.675295353 -0.225366190
2.275875092 0.466194749 -0.292091548
0.178150803 0.276485622 -0.153667688
0.555327773 1.905294895 -0.388847798
3.468782425 3.524453878 0.704538465
5.507011414 -4.358026028 1.240774632
5.264981270 2.274144411 0.851158917
6.017099857 5.190286160 0.095015123
1.296661854 -2.942250729 1.942133784
0.286049068 -0.212490052 0.762121797
0.165422857 -2.865799665 1.488696218
3.010578871 0.647845745 -0.905874729
5.660439014 -9.000853539 1.003999114
1.613587976 -2.920054674 -0.000194439
-0.045121737 0.656971097 -0.361960441
0.703835726 1.345268488 -2.055199146
-0.035370134 0.794869244 -0.355004787
-0.033605307 1.672970772 -0.758196056
0.029107781 1.718850255 -0.828603864
4.357429028 -2.195968628 1.308578014
2.539960861 -3.175647974 1.556460500
-0.411345541 -0.454705060 -1.049312711
-5.631711006 17.517835617 -10.363502502
-0.105259717 1.183226466 -0.534101486
3.198290825 -0.055755112 -1.000812054
-1.755206823 -0.396668255 0.120319560
3.472280264 -0.620925546 -0.078390896
2.135982037 -0.353350759 1.572039366
-0.255215198 -1.297372699 -0.931459725
-0.648475885 -0.193273127 -1.018779635
-0.653080463 -0.325173914 -1.137038589
1.070443630 -7.253321171 1.297862053
1.963366151 0.205283985 -0.944369853
1.360060096 0.074186750 -0.823622763
2.982125759 -0.438184649 -0.688001335
-0.032680172 -0.066673778 0.570102692
1.759785414 -0.364023238 -0.956970572
0.006031951 0.109894350 -0.343064934
8.217831612 -7.715981960 0.507798493
-0.036894482 0.392658681 -0.360990047
0.520860255 2.147457123 -0.353783429
-0.930054069 3.607383966 1.070935011
-1.759700894 0.637259007 0.057581108
1.307390332 3.692152500 -0.592917979
2.237615824 -0.364383519 -0.274657726
-1.005442619 -0.291915148 -1.052485228
0.269817024 -0.795626462 1.824950695
-2.246110678 -4.143727779 0.021082692
-1.173622012 -2.135813475 -0.368095368
2.707850933 -3.520094156 -0.801461220
1.818430543 -1.358366013 -0.143943742
2.148446083 -1.118543863 -0.394089371
0.825776398 -1.158086777 1.503603339
-0.293014765 -8.424491882 0.604473829
-1.782342792 -0.339773744 -0.052454464
-0.307157189 0.755339563 -0.367562532
1.852544904 0.060698368 -0.952174425
0.443146229 0.182288975 -0.378763586
1.776027560 0.282003969 -0.764575303
-0.737838864 -1.867752314 -0.189657614
0.561824024 2.816678524 -0.569702625
0.306218505 -1.765554070 -0.381966472
-1.015693426 0.092118390 -0.330220550
2.041208744 -4.032504082 1.456014276
-0.262063980 0.984036982 -0.802398026
0.064632222 0.115228437 -0.415800840
-1.083636045 2.578742504 -0.536734164
1.267510653 -1.017075658 -0.324900836
1.516746044 -0.788598001 -0.288493663
-0.664639294 -0.369834840 -0.993439257
-1.169804454 0.986631751 -0.588676810
1.623274446 3.047036409 -0.172359899
-10.056412697 9.703501701 1.662936211
-1.885880470 2.005672693 -1.008182764
0.354058892 2.482437849 1.193166256
0.914072931 2.517402649 -0.396931887
-2.197731018 1.392392993 -0.192555577
4.048758984 -0.964230180 1.456007838
2.317804813 -0.474312544 -0.296486169
0.492809236 2.869372845 -0.313838184
-0.398042649 2.577123165 -0.021071505
-0.647592604 0.014618959 -0.872313499
0.006355434 0.339737147 -0.365348130
0.783220708 -0.095240578 -0.365440100
0.675741374 -1.968300581 -1.056375623
0.041216187 0.133221284 -0.330385298
-0.098458432 0.541078687 -0.356927812
1.993009210 -5.871964455 1.583412051
4.587457657 -3.071555138 1.245490670
4.529113770 -2.283200979 1.309375763
0.263886243 -1.742053747 1.422459841
6.812628269 -5.160835266 1.118235111
-0.914254308 -0.784397602 -0.369808286
0.479493886 3.059118509 0.208589762
3.432393074 0.621882141 1.555016279
1.882689238 -0.374567896 1.542726636
1.330955386 0.369327456 -0.945161700
0.774974048 2.375802755 -0.362320453
3.561422586 2.909743071 -0.504689097
-2.664141893 0.941315353 -0.408908337
1.357545018 0.810688674 -0.064359941
-1.947148681 1.669391751 -0.508105159
1.982009649 8.468128204 1.810814142
1.539020538 -1.047491908 1.522185326
-0.301693529 0.764576733 -0.369985342
3.804033756 3.364112377 -0.641986787
-2.600833178 2.316143036 -1.174203634
-0.869188011 1.400403857 -0.812459230
-0.336702794 0.682158589 -0.580033779
1.000918269 -6.870246887 1.250597954
2.327938080 0.948866665 -0.298838705
3.144965410 0.494397521 -0.407007962
2.371277094 1.093773365 -0.960127473
3.209621668 0.592846930 -0.388660967
3.038697958 1.254601240 -0.330591053
4.399609566 -2.154458761 1.211343408
2.467049360 -0.121121585 -0.830023170
0.157107994 -3.170676231 1.646929026
1.814460516 -8.065030098 1.083784819
0.962260246 -1.113847971 -0.230086148
0.312826067 -0.554910600 -0.573344529
-0.003565576 0.113027208 -0.335671157
0.006211692 -0.034050897 -0.373839229
4.625464439 -4.106969833 1.115637064
6.213503361 1.917727709 1.278896332
5.959611416 -0.973827124 0.766915083
1.658746004 2.461419582 -0.641608059
0.767087340 2.399736881 -0.875737011
2.622849703 1.851192236 1.404316425
-0.374793917 3.734269857 -3.128129959
2.955786705 1.383721471 -0.356430113
4.724931717 1.133898854 0.589280725
0.939377129 2.848221302 -0.393037349
0.025964525 0.141257972 -0.322915554
3.161751270 -1.421455145 1.823051095
4.510036469 -2.831099272 1.251121283
0.281580955 -0.235704765 -1.265773535
0.221977100 -0.747349083 -0.746693492
143.009674072 32.465782166 19.318193436
0.334948599 1.996070862 0.662869871
2.109469891 0.681728184 -0.254159421
0.003371945 0.040788926 -0.489362478
0.099356264 0.449892730 -0.244863287
0.085234188 -0.018135304 -0.582922459
7.691873550 3.482301235 1.202927828
1.738250852 -1.215574384 -0.015799880
-0.019659251 -0.470183015 0.753079951
-0.148090035 1.191155791 -0.534394860
0.600581586 0.080533154 -0.428899288
-0.551313877 1.201535344 -0.775380492
-0.962994277 -0.084180310 -1.042937756
0.046739917 0.112163432 -0.359629244
2.277524233 1.393013835 -0.919503450
0.917319536 -0.179288492 -0.660287023
-0.048567168 0.208499730 -0.373998851
-2.005443573 1.691810250 -0.477034241
-1.818870187 1.894011021 1.403275728
8.905599594 5.167585850 0.031724747
0.403165996 2.522432089 -0.182712287
-0.168209776 0.408495396 -0.375484258
-1.013288617 1.329476118 -0.209684610
-0.882764459 2.127229691 -0.385161668
-1.969864488 1.379312992 -0.439295352
2.541913271 0.664843798 -0.295869917
2.586666346 -3.264046192 1.615453720
6.052369595 -5.920488358 1.109557509
-0.358144075 1.027039766 -1.300509930
1.052121162 2.255781889 -0.609281838
0.049756665 0.026735120 -1.007341027
-0.118273541 2.857695341 -0.205348119
-0.380635560 2.513114691 -0.319654047
-0.539016664 0.994826853 -0.364387304
2.693936348 1.568649411 -0.851755321
-0.339960128 0.622690320 -0.458600074
2.885335207 1.191197634 1.363211513
2.327166319 -0.436964571 -0.288061976
8.192368507 5.602912903 1.526395082
5.892930031 -0.357497007 0.465731859
4.879681110 2.796732903 1.442122102
2.081376314 -2.056697369 -0.500474274
3.470579624 0.637502730 1.575498700
5.625726700 -0.881467521 0.734174013
6.660969734 -4.255353928 0.655279279
1.997602105 3.417210102 0.009542545
5.466815948 3.951524973 0.764276445
0.026216852 0.136357486 -0.323603034
3.943722486 -0.956292808 -0.066404201
1.091353536 0.029363493 -0.852803409
1.380758524 0.179662481 -0.904126883
0.171251431 0.116964974 -0.361513078
-0.094478667 1.234773278 -0.353326410
-6.709266663 4.640370369 1.078001618
-1.372468829 0.060707774 -0.463578969
7.054449558 5.603910923 -0.546075284
0.084332623 0.497424930 -0.265644968
0.774433136 2.726842403 -0.559559464
3.359791040 0.041799515 -0.163652718
3.390702963 0.573355198 1.520449996
-0.240226433 0.600174785 -0.384704649
4.111037254 1.512332201 -0.794166982
1.884856224 0.375280768 -0.945142031
0.895519316 2.134259701 -0.549639702
-0.349425286 -0.290970236 -0.157148406
5.137674332 1.420995355 0.798725784
-4.084551334 3.797878027 1.504157901
-2.213850498 2.311027527 1.239733458
-0.817009866 1.988872290 -0.233869419
0.012937950 0.295618445 -0.272148162
1.797533274 2.245700598 -0.622773111
3.501553774 -0.005853993 1.295609474
-0.015494508 -7.511942387 1.108795166
0.513751209 -1.679583430 -0.662923694
-0.115969852 -1.917217851 1.737689972
0.418843120 1.145751238 -0.035509039
-0.986529052 4.286148071 -1.776503921
-0.145539254 -1.960030556 1.369466662
-2.559954166 0.756136358 -0.592683971
-2.396787405 -4.175912857 -0.268958211
2.522881508 -3.177122831 1.579373717
0.003294311 -8.042577744 0.575703084
3.562004089 -9.474820137 1.008924365
-0.732286692 -5.455880165 2.451318979
1.783452511 -0.790915370 -0.336697161
-5.154370308 -5.710299969 1.443916678
-0.756964922 -7.733905315 1.105174661
-1.638800025 -5.232661724 1.247359037
-2.386589527 0.493378013 -1.532044768
1.843042016 -1.410523772 -0.155074194
2.155789137 -0.361873746 1.585976601
1.244898915 -7.540574074 1.390287399
1.464587927 -6.344558239 0.317821980
5.290049076 -8.330636024 1.010220647
0.929080486 -3.557086229 0.028887777
-0.202083349 -2.279692888 -0.300782710
-2.296645880 -4.841812611 0.809959948
7.793232441 -6.628824234 1.313077688
-0.430470169 -0.429852188 -1.046232462
-0.582981348 -0.560192227 -0.405785382
2.361706018 0.595158041 -0.976503134
-0.232358322 0.799328923 -0.362656653
0.017536990 0.302989781 -0.233937874
-0.198930323 1.095806956 -1.246827364
-1.118670940 -0.287108630 -0.343059242
-0.497936964 1.451509833 -0.362659454
-0.305553079 0.796061575 -0.382929921
-0.078792617 0.322139323 -0.389248788
4.145795822 -4.532380581 0.523728490
2.160500526 -2.211583138 0.315521628
3.827700853 -9.989745140 1.004202366
6.633459568 -4.210775852 0.966330886
-0.411719948 -1.291538715 -1.100497246
-0.135989323 0.764776587 -0.428138226
2.845691681 0.418411404 -0.352387249
3.196596384 0.588961303 -0.375129789
2.903681755 0.107142985 -0.433483362
2.630715370 0.962738335 -0.324319333
-0.556916952 -0.484171867 -0.935238123
5.790043354 2.614373684 0.701074123
-0.578484178 0.635263979 -0.814459324
-0.298148841 -7.844434261 0.559935629
-0.169643909 0.412819445 -0.379284382
1.916078329 2.256412983 -0.879474223
0.701484203 -1.679237723 -0.361562639
1.365152955 -2.063418627 0.339163125
-0.862760127 -0.131008834 -1.015724778
-2.320816755 -2.142497778 -0.145762682
2.584053993 -0.114606656 1.589375496
2.596658945 1.332295775 -0.299754173
3.082546234 -1.301016569 0.994717121
2.212580204 0.909724951 -0.840604126
-0.512378931 1.019449830 -0.435581714
4.545295238 -4.990728378 0.543885887
2.556535721 1.560221672 -0.910547078
6.320378304 -3.073009968 1.913237453
2.025042534 -0.126212731 -0.485457629
0.143709153 1.054962993 -1.739002228
0.059221692 1.078539133 -1.443391323
-0.045336194 0.669416964 -0.357980609
-2.275532484 -3.565777779 1.168465734
0.008276180 -1.962712288 -0.375391930
-0.153581381 1.494382381 -0.231693417
2.246915340 2.945666552 -0.812136769
2.718850136 1.406749010 -0.325370729
1.385911822 -0.083568230 -0.369259983
1.603274941 -0.348062932 -0.854066908
2.869537592 0.276848167 -0.441052496
6.846523285 -4.341514111 1.000890136
-0.239345640 0.795999587 -0.364164770
-1.259001970 -0.193911776 -0.481127828
-0.858695388 1.959050894 -0.269011706
0.437269837 1.670703292 -0.588255882
-0.230375335 -1.370722771 -0.949506342
-0.010414339 1.100180149 -0.930452049
-0.133971334 0.840205729 -0.353551865
0.002144158 1.085796237 -0.980811119
4.983435154 1.947175264 0.814166784
7.446776867 3.003621340 0.874245822
-0.130808696 0.306033760 -0.469335467
-0.048141871 0.450972378 -0.261061370
-0.739664435 3.027688742 -0.841736495
-0.020683359 0.295667648 -0.364828199
3.408034563 0.328300178 1.470480919
2.298630953 1.403326750 -0.928860784
1.100598693 3.103179216 -0.477025896
2.467298746 0.981574655 0.822448075
-0.481006563 0.146552622 -1.831760764
1.748984814 2.500328302 0.022369899
-0.294615746 0.134296134 -1.170482993
-1.469556808 -2.327338696 -0.668347180
-0.058030903 2.624885798 -0.928150773
-3.296406746 0.894835591 0.182593137
-0.157156736 0.452934444 0.356286317
-3.246953249 2.424471617 0.014935796
-0.151624992 0.524982214 -0.374271870
0.759436071 -0.072845727 -1.073632956
-1.531072736 1.675565124 -0.281757265
-0.020835113 2.752340317 -0.065093510
-0.231813639 1.451649189 -0.204971626
-0.522768497 1.391826510 0.884842932
-0.686971784 -0.207483605 -1.056465387
-0.148598433 2.907613516 0.116016008
-0.655819476 2.391149998 -0.268899858
-0.228286833 0.563452244 -0.370174557
-0.428112447 0.486229897 -0.736883163
-2.386708498 0.817678750 -4.131728649
-0.590361953 9.805848122 4.980759144
0.804784238 3.567256212 0.166997775
2.357295036 1.533422947 0.877432406
-1.136061311 4.524394989 0.146281302
-1.754769444 1.485324740 -0.462517768
-2.039500713 -0.474016696 1.392462730
-1.003925562 -0.130276218 -0.373303980
-1.027431965 2.302868843 -2.089647532
-1.543149948 0.302009135 -0.425266474
-2.726474047 3.314594030 4.485331535
-0.970354557 -0.214232668 0.647141397
0.657428503 1.326325893 0.061918125
-0.261141449 -3.651232004 -1.282115936
-1.168444037 0.300799370 -1.307979226
1.754602551 -0.062776975 -1.218944788
0.330629855 0.165964544 -0.465032458
-1.747074008 1.741002560 -0.223114133
0.698518038 1.000041127 -2.342146397
1.095819831 2.976725101 -0.847206056
-3.933841705 11.696046829 1.476755619
0.076558091 0.467385858 -0.362302095
-0.226827741 0.583119035 -0.359958887
1.174329400 0.540009856 -0.955326080
0.124752395 0.099038191 -0.405120581
0.554612398 2.440724134 -0.181424916
-1.821202993 1.845637202 -0.234581813
-0.036640137 0.739527524 -0.336320639
0.618431568 2.248924017 -0.406040967
-0.645537019 10.488893509 2.481681347
2.105362415 -0.471166402 -0.852603555
-1.812664509 2.074964046 -0.066822797
-0.857729435 0.172736049 -0.958495200
-0.611707509 0.219174683 -0.836383879
-0.029934222 0.794053257 -0.362091601
-4.112305641 4.961840153 1.287140489
-0.069486052 2.305362701 -0.778306484
0.283657074 1.949309826 0.982293546
1.196344376 0.060373697 -0.744346738
4.926944733 1.520713687 0.180948675
4.581639767 1.698708653 0.982708097
-0.004466240 2.885541916 0.174161747
-1.671125412 1.623940825 -0.203222305
10.845459938 7.479146481 -0.625951588
-0.522891879 0.947191298 -0.483169198
-2.085964203 1.457641006 -0.883184612
-0.197263956 -0.011060855 -1.565766215
0.096442997 -0.031326886 -0.617021620
-0.004038571 0.309991062 -0.229891986
1.710259318 8.076747894 -9.150683403
-0.151055560 1.121472359 -2.159209251
0.019377138 -0.048823494 -0.378237695
-0.136950955 0.370960295 -0.783781111
-0.475093096 1.001941562 -0.974816263
3.075877428 0.671000540 -0.315675318
1.614752769 2.699190378 -0.884506047
-1.674071312 -0.245944649 0.145682603
-3.170998812 -0.203923240 -0.863366187
-0.484269619 2.698959351 -0.253066748
0.015919179 6.776352406 1.578329325
-7.141791821 5.740983486 0.976907730
2.472880602 1.225086212 0.327242672
1.287680984 0.075016081 -0.799534082
0.022339063 0.130759865 -0.322345018
0.643055141 2.125082016 -0.636087000
-0.083086334 0.365317672 -0.368251085
-2.320665121 2.253171444 -0.105981663
0.507640600 2.514247656 -0.517884076
0.115010463 0.088729471 -0.368767500
-5.066665649 0.708003461 0.777845144
2.055370808 3.281658888 1.600031495
-1.126018167 3.812853813 -0.577019274
-0.169148654 0.414065331 -0.383612275
-1.127127647 1.552129507 0.028323783
0.815162659 2.077496052 -0.122609884
0.644682050 2.435260534 -0.477177709
-0.100439779 1.225226641 -0.347242296
-0.100035161 1.231896877 -0.352050453
12.817042351 7.822368622 0.232629508
2.533259153 0.996326089 1.191347241
-1.355931997 1.590597749 -0.196361855
6.044326782 1.862886071 1.246112227
1.849403620 3.762491941 1.476054668
2.211344242 0.471382082 -0.285245121
2.276679039 1.392697453 -0.899967790
-0.566414297 1.240616322 -0.782022059
-0.877372622 0.787646234 -1.024785757
-2.487838030 2.528961897 0.091637716
0.523770034 0.101833612 -0.639712930
-0.236154631 -0.032123063 -0.837249398
-0.696045935 -0.085807279 -1.024555206
0.020198273 -0.050050918 -0.379652500
-0.229271546 0.803583086 -0.366961986
2.312245607 -0.299834758 -0.107033774
7.494832039 4.845998287 0.350690812
0.877295434 0.884394825 -0.077387899
5.539211750 1.862318397 0.866744637
4.129076481 3.177348137 -1.256452680
4.555382729 3.408514261 0.252867460
-0.694519818 0.265383273 -0.938464105
0.358520359 0.172016174 -0.499474347
-40.120269775 104.574882507 6.285243511
0.019759640 0.133387595 -0.335580528
-1.483806491 1.780039430 -0.534800351
-0.196073204 0.575976133 -0.366303325
4.808355331 4.295769691 1.291580200
-0.063803792 2.486790419 -0.456775039
-0.040672418 0.801883459 -0.441728413
-0.203695536 0.573757470 -0.361180484
-0.217106014 0.450162947 -0.438303798
5.838973522 3.286463976 -0.815818787
4.935963154 1.363637686 0.752745926
4.218155861 0.887448549 -0.491519839
1.739464402 2.401695967 -0.768683612
1.870705485 -0.653900504 0.681016862
5.273010731 3.862089634 -0.407419890
-0.094501801 1.235610008 -0.353511930
1.135386109 2.899571180 1.571413636
-0.013555737 2.368795395 -0.702475846
1.695718646 -0.833051145 -0.096745849
-0.987873912 1.637966037 -0.963143110
6.751198769 2.775724649 1.683755755
1.697343707 1.368586898 1.153832078
1.006006002 2.912580729 -0.412274748
2.051235437 1.663137436 1.336410642
0.936364412 1.630901814 1.113097429
-0.153602183 0.739545286 -0.366926998
0.962819099 0.708990991 -0.818895221
2.555850744 2.480048895 -0.833315849
1.388169646 1.179598451 -0.818134904
-0.776384592 -3.474942207 0.674638152
0.010232546 -5.924234867 2.984892845
-0.010323058 0.296156347 -0.366754979
7.721148014 3.257928371 -0.537516296
0.453329951 2.064209461 -0.585538268
0.317159235 2.243176937 -0.876643836
8.255657196 3.445004940 -0.220093444
3.798846245 -0.994857788 1.379206419
0.150006264 -8.395161629 0.590825379
1.144502759 2.027185917 -4.728791237
1.125593543 3.225560665 -0.528209686
-0.534931719 1.000950098 -0.368990600
-1.862069011 0.860852778 1.334199667
-1.820599675 0.429798812 -0.469632775
0.015167602 -1.949835896 -0.394204736
-1.413493752 11.951252937 3.220536232
3.779427290 3.647541285 0.372890234
2.993469477 0.232632980 -0.818663895
3.759574175 3.075730801 0.244604111
4.939648151 2.106342077 1.374908090
4.779644966 2.234197378 0.191541478
2.026118040 2.608092785 -0.159157395
0.781307042 2.012296915 -0.604829729
1.155571342 -0.601798773 -0.451559901
-2.077789068 -0.441339970 1.368059158
1.608419538 -1.001205921 0.032095391
2.373136759 0.546407938 -0.926327288
-0.541623235 1.002545238 -0.358940035
-0.544336140 1.000854254 -0.356204450
1.575333357 -0.861174345 -0.572533607
1.159070611 3.762154341 0.168925077
-0.050766036 0.113440655 -0.671741366
2.505013943 -3.117479324 1.549913049
-2.408041716 -4.620769501 0.043005094
-3.379915476 -0.507445812 0.544688523
0.415805399 -1.800282001 -0.376093149
5.655198574 2.353259325 1.546665907
12.305931091 5.546609879 0.268695951
-0.572691858 2.759691477 -0.243282378
-1.016821027 2.497546911 -0.287585974
1.402247310 1.483375669 1.391451836
1.731989980 -1.791813135 0.003624352
-0.035350852 0.350361526 -0.264413238
0.423090070 3.229598999 -0.507257938
-1.154863834 1.633640885 -0.271703899
0.151591316 0.366657048 -0.257731676
0.142095745 0.359222263 -0.251395762
1.288789868 3.322952986 -0.213551506
-0.022250954 1.664602637 0.447256058
0.622056603 2.988065243 -0.551141441
-0.220917717 -0.192609370 0.012505963
7.229978561 -5.896855831 1.924876928
10.746125221 4.781581879 0.590205550
1.611003995 2.167481422 -0.911295176
0.061651401 0.032050394 -0.891702473
0.037444390 0.129660413 -0.327886552
0.197941691 0.112873763 -0.905113399
1.923839569 2.312443972 -0.399364889
0.824353039 2.685761452 -0.424539059
-0.225155815 0.569759071 -0.366507649
6.851288319 3.019846678 -0.486448854
15.940283775 -0.536051154 -0.504395545
4.475294590 3.403711557 1.448258400
4.666718960 0.882172406 -0.540622950
0.043103464 -1.121405005 -0.606171131
-1.025112391 -0.349200279 -0.653791070
-1.488523006 0.049641851 1.486203313
-0.086424604 0.551762104 -0.374777734
2.097069740 3.234972715 1.583564878
-0.728138864 2.253522635 0.108302347
1.172432542 0.038144469 -0.728115082
2.219565153 3.946949244 -0.223268166
-1.548062205 0.154132351 -0.004943565
1.206295848 0.035212360 -0.424614996
0.980128527 -0.032930113 -0.897615433
1.084799051 0.043699436 -0.683006227
4.772029400 1.143114209 0.600585341
-0.224800706 0.575352311 -0.364722133
0.178586826 4.814850807 1.138001442
-0.383277416 -0.037020843 0.119953252
-0.145788535 -0.114209212 -0.346822232
-0.423336625 -0.260901004 -0.428236037
-0.870084405 1.525099039 1.901333213
-3.981230974 0.797178566 0.706710517
-4.442431927 1.606651783 1.370523453
-1.121495605 2.117571354 -0.535338521
-1.606893063 1.716549873 -0.927237809
-1.717276096 1.750795245 -0.498371810
4.178853512 3.741467476 0.924203575
0.159298256 0.114719175 -0.350342244
3.247973919 3.320252180 0.205597401
1.666973829 0.847175717 0.895204186
3.269173384 3.314289331 0.193211675
2.184677124 -0.339116991 -0.220579699
-0.872801960 0.126067862 -0.384541869
1.644664168 -0.939650297 -0.307048529
-1.201051354 -0.185316890 1.839182615
1.392706633 -0.561290622 -0.823925734
4.082139015 -2.024705410 1.208517790
2.210389137 2.955937624 1.581404448
0.020630350 -0.045219205 -0.375987768
-1.176871657 2.203962088 0.212843567
7.526489735 5.099747658 -0.449962527
0.956356168 5.579032421 1.656279206
-1.833660483 -0.341176271 1.870963693
0.991222382 -0.009338112 -0.319204926
-1.963032722 2.375707865 0.388617516
-1.075841546 0.056926742 -0.964530110
8.042002678 6.255680084 0.495371312
1.192353725 -0.044645365 -0.379298300
3.351716518 0.701122522 -0.316050529
3.509586811 0.567823350 -0.413690358
5.073565006 -2.466658115 -0.249783143
6.078621387 -0.873817325 0.163293928
5.866008282 -6.195221901 0.640366256
0.148891643 0.378839046 -0.251451105
0.134776071 0.375190288 -0.354144543
-1.122467279 1.554330826 0.028588878
0.022989573 0.126526386 -0.310441494
-1.610635281 1.709744692 -0.915420175
-1.210281253 2.351768255 0.119129471
13.631093025 8.443788528 0.807766259
-1.876466036 13.911246300 1.770631790
4.981715202 2.270893574 0.188948587
-0.133595809 2.961910248 0.136409923
-0.830203712 1.317083240 -0.778553903
2.967198133 0.306410670 -0.473422915
0.170723975 0.109821253 -0.366040915
-0.495029092 2.647601604 -0.495505869
-0.765299022 1.854978561 -0.224926040
8.369857788 3.462136030 1.362415195
3.249308586 0.137963057 -0.111581489
-1.445521712 0.272619218 -0.307752043
-1.312406421 1.580810070 -0.779874563
0.532570243 0.888901889 -0.189461708
-2.643091440 5.380513668 1.895225883
2.923766375 0.440762401 -2.232820988
-0.041388046 0.197530106 -0.345626861
1.736444592 3.538650990 -0.853726923
-8.679039955 8.644746780 1.497313619
2.390531540 1.476943016 -0.421131253
-1.876002669 0.431578964 -0.475734860
-1.436071277 1.290539145 -0.122618437
-5.562853813 3.411343098 1.611112952
1.133986115 1.353347778 -0.955941498
0.050799366 0.120097488 -0.366804838
1.643930793 3.498525381 1.495938540
-1.037172914 -0.066498585 -1.146481514
-0.016972240 0.369665593 -0.293998778
-0.603461683 3.936090231 -0.041410848
-0.051081888 0.188496783 -0.375029773
-1.077834010 1.557111382 -0.292036116
-0.043387793 0.197945893 -0.342136800
1.617868185 0.629398108 -1.262337804
-0.662610650 -0.096330114 -0.966202021
0.241369665 1.347880602 1.742321014
1.045440435 3.672672987 0.076142907
0.422028989 0.268375486 -0.363539577
