2.838905334 -7.565907478 35.973667145
10.184167862 -4.065534115 35.093021393
10.162242889 -4.059801579 35.064743042
2.894980192 -8.903558731 34.082679749
0.411350518 11.364368439 39.271354675
9.979157448 -11.349451065 36.669124603
4.117749214 -1.633565903 36.805393219
4.123014927 -1.633994818 36.799011230
4.571021080 -1.242944241 40.177040100
4.567168713 -1.265006661 40.117660522
3.126164198 6.532240868 39.153369904
-0.709982991 -9.833756447 34.733264923
-3.200137138 -13.327310562 36.658763885
-3.439185858 -14.011734962 37.068950653
-3.420684099 -13.858127594 37.023811340
-2.388714790 -16.275165558 34.820819855
-1.258074403 -2.317603350 39.270065308
4.129476547 -1.624670625 36.799255371
0.629278362 -6.360219479 36.617694855
-7.596358299 6.342198849 44.049594879
4.301093578 -11.272984505 35.039897919
17.942998886 -1.492161512 41.707138062
6.164942741 -4.309375286 44.025379181
18.852375031 -0.102446727 36.624080658
5.006900787 -0.997202277 38.255382538
1.276883245 9.273382187 41.353256226
5.839076519 0.785530269 41.941036224
4.038750172 -0.068666875 47.368556976
3.872015476 0.183522895 47.302677155
4.958462238 -0.914679110 38.197639465
5.012124538 -0.924644291 38.123573303
2.548389435 -1.942303538 37.264259338
-1.104034543 -0.582932532 37.294483185
7.906211376 3.813071012 37.158214569
1.511695862 -3.273025274 39.403827667
3.166050911 1.566196561 45.757682800
-0.498603225 -6.730813503 37.786697388
17.244956970 5.539827824 37.707630157
17.151634216 5.482376575 37.655242920
4.207418442 2.065758467 38.656932831
5.055276871 -2.210723162 39.447639465
8.107127190 -1.415616035 37.578536987
10.412935257 -3.306761265 45.529903412
10.115642548 -2.291697741 46.856380463
17.801578522 -0.772201478 39.816478729
10.202117920 -2.258284330 47.216163635
18.157606125 -0.724901140 40.077762604
10.235141754 -2.220585346 47.310138702
18.206098557 -0.698976338 40.080211639
8.531984329 -2.622431040 41.043251038
3.563663244 -2.034408092 41.984874725
4.475769043 -2.008561373 37.379745483
17.344526291 -7.830699444 40.180255890
-0.770229220 0.411704153 42.062667847
0.694628775 7.421541214 44.679981232
2.081293583 -4.556712627 39.792373657
4.735219002 -1.019650698 38.791286469
9.034503937 -11.219441414 39.947307587
7.462740898 -3.361578703 40.884021759
-4.762996197 -13.143344879 41.399402618
7.120472908 -1.729202509 46.312763214
9.056735039 -1.186603189 48.399333954
4.392938614 -14.538578987 39.379978180
9.203440666 -3.009659767 39.981224060
12.385485649 -10.564268112 45.867778778
6.014716625 -11.211762428 41.063568115
1.307409286 11.945476532 43.127128601
1.325037122 11.680076599 43.016193390
5.136881828 -2.231032133 50.895282745
4.762267113 -4.739195347 43.849990845
5.174038410 -2.163196325 50.476261139
5.133076191 -2.172144175 50.313961029
5.112837791 -2.198807240 50.103332520
1.790144444 -2.047908068 49.853488922
14.405802727 -15.657719612 40.303920746
-7.161045551 -10.100738525 49.324569702
0.139030695 -8.424424171 46.841480255
3.637241840 -5.878377438 40.127502441
3.892170906 -4.412456036 39.091403961
0.067572989 -3.297276258 45.643802643
0.094390094 -3.257854700 45.521591187
0.249240890 -3.164321423 45.397178650
12.443702698 7.806179047 42.124240875
12.442447662 7.782755852 42.110527039
11.436461449 -1.053667784 39.048759460
3.941608667 1.025801182 56.340358734
3.775789261 0.636216640 54.861797333
3.252304316 -1.320870638 49.929912567
3.959680319 -0.508963525 47.222770691
2.021007299 -1.206823945 55.921298981
3.941399097 -0.609495044 46.960979462
3.925913095 -0.672074378 46.990928650
3.998226643 -0.621140182 47.153884888
4.098178864 -0.596266985 47.591678619
8.742965698 -7.551917553 49.887683868
9.537347794 -2.065591097 42.550319672
9.588442802 -7.532933712 38.838012695
10.820466995 -11.557992935 40.601139069
-12.845665932 -3.777380705 40.559207916
1.191373348 0.318718672 43.108051300
1.193184137 0.302676231 43.173316956
4.759825706 -2.310593367 40.968677521
5.004961491 -2.780924082 48.112716675
12.194881439 0.460602194 46.435245514
6.441689491 -2.756747723 41.944244385
6.438420296 -2.759011030 41.921371460
3.726776361 -5.398708820 56.482219696
6.277396679 -2.534895182 43.067985535
3.779053211 -5.332101822 55.695743561
6.449864388 -2.696843147 41.946216583
8.453007698 4.447806835 40.122982025
-4.657249928 5.586100101 45.597896576
-5.067574501 6.018720627 46.252582550
6.901483059 6.120505333 44.797019958
4.812783241 2.356646299 42.536911011
3.665597916 7.448197365 40.442100525
3.014183044 0.122105002 44.449874878
-8.867187500 -12.580737114 40.641223907
3.231251240 -5.914776802 42.194366455
5.216874123 3.448741436 49.008323669
5.213137627 3.429038763 48.854640961
5.245344162 3.415404797 48.717559814
4.759825706 -2.310593367 40.968677521
2.066109896 1.235182047 43.445564270
6.345625401 -2.845474243 43.945945740
-7.876091003 -2.795079231 43.284633636
4.814159393 -2.796163082 47.735065460
4.032959938 -1.398654222 45.023517609
3.636595726 -0.817374706 43.350749969
6.062530041 -4.127621651 45.820983887
4.003048897 -1.140781283 44.688453674
3.954692125 -1.192791462 44.903770447
3.630822897 -0.771991611 43.231510162
5.181412697 -2.861058950 56.698646545
4.702448845 -3.891099930 50.379558563
2.944810629 -4.223333836 45.141616821
2.888631821 -4.294971466 45.091602325
3.465461969 -5.671476841 44.463012695
3.446633101 -5.647711277 44.332271576
-10.069241524 0.383050859 45.291389465
3.618808746 -3.811975718 44.025398254
3.552644968 9.604146957 43.438678741
8.005428314 -1.393465757 45.172660828
7.998325348 -1.378399968 45.152511597
7.993185043 -1.419419169 45.060871124
-1.001668572 2.537344933 46.748847961
1.623831868 -2.060493231 40.768184662
14.381472588 -5.496667385 44.933345795
6.584112644 -8.371420860 40.945293427
4.570657253 -4.035079002 46.425304413
4.351890564 -4.014623642 45.885189056
4.052689075 -4.205740929 43.820606232
4.216576576 -3.977709770 45.563827515
4.288078308 -4.023828506 45.771839142
4.366899967 -4.072221756 45.968219757
15.722151756 0.634761751 52.456123352
9.638531685 -5.004294395 52.515529633
9.601515770 -4.935268402 52.300266266
4.233785629 3.298482895 51.773338318
6.329528332 9.693087578 43.613613129
3.420827389 2.854214191 50.362731934
1.629543543 -0.527933061 46.676403046
1.644158483 -0.504366100 46.451984406
5.331266403 -9.448133469 47.356430054
5.954741478 -1.960184455 47.538928986
7.501466274 -2.007793427 49.621864319
7.473507404 -2.045997858 49.664291382
6.520361900 -2.058838367 43.841316223
5.684486866 -3.269625187 56.495254517
7.012777328 -2.009988546 46.659114838
6.264541626 -2.209448814 46.016685486
6.264193058 -2.133593321 46.427108765
6.446014404 -2.252475977 44.011360168
4.631597996 -2.576315641 52.515625000
5.562014580 -5.739817619 41.390823364
7.340914726 2.165483236 41.624248505
2.804069281 -0.389549524 43.376018524
2.454616785 -1.233105659 46.418342590
2.454339266 -1.229791999 46.420440674
3.224201918 -2.532239676 48.833641052
3.168700695 -2.649806499 49.163166046
-0.214474723 -7.584327698 54.164600372
0.844974399 -8.152946472 45.375728607
-3.641928434 -13.411788940 43.047504425
-4.478071690 -13.174892426 45.001132965
-3.066515923 -12.422124863 42.386795044
-3.947545052 -13.306577682 43.205619812
-3.912123442 -13.232454300 43.158935547
-1.594326615 -12.622105598 42.955764771
4.495016575 -2.704186440 42.779617310
-9.909677505 2.248956203 46.395126343
4.274977684 -2.169595003 41.876918793
5.265648365 -4.468626022 44.459903717
5.420985699 -5.791608334 47.693546295
10.147746086 -1.963330626 51.858863831
-0.155767411 -2.295573711 46.405937195
-9.078442574 -4.370721817 41.006275177
10.254931450 -6.342889786 45.215015411
4.670435429 -4.784823895 45.355617523
9.169028282 -14.513927460 43.469615936
9.148983002 -14.624766350 43.477573395
6.597909927 -1.024661899 46.927593231
6.213819981 -1.252100825 43.937011719
13.474185944 5.079384804 48.211669922
6.117765427 -1.609781861 49.050514221
9.415077209 -4.842524052 44.631725311
4.590096474 -2.881539345 55.117095947
7.469031811 -8.704381943 48.310230255
-1.533944488 -1.399920583 50.274269104
4.833438396 -2.306707382 43.210376740
2.284429312 9.188435555 43.131191254
6.598853588 1.745154977 47.546871185
4.982388973 -3.747785091 45.241737366
4.922913551 -4.952133179 56.043716431
7.964359760 -3.757365227 50.419860840
-0.091361895 1.956755042 43.555244446
1.463633418 -8.813364029 44.316642761
0.611127436 -15.395029068 46.852966309
1.971507311 14.644364357 43.945449829
5.339241982 2.419946909 42.663455963
5.714793205 -0.073138312 44.780731201
-10.211599350 -3.156660795 47.157543182
3.856238604 -8.133745193 42.683570862
19.725597382 0.756558061 46.746242523
16.996915817 0.780933499 46.949031830
0.414605498 -4.231365681 46.820514679
4.026471615 -8.626713753 53.002952576
10.650735855 -3.648559809 41.787284851
-0.008140133 -4.025522709 49.813610077
2.182454109 -1.914766788 47.790122986
9.687374115 -1.865976930 44.590965271
-7.003458977 -6.875801086 48.763351440
7.273814201 -3.294099808 51.595169067
7.277659893 -3.296854496 51.816318512
-10.036079407 -5.420986652 42.513835907
-8.640730858 -8.462773323 47.645645142
19.063869476 0.384084255 46.804809570
-1.639541507 -6.649126053 51.155941010
17.029474258 -9.951347351 46.497493744
18.092403412 -5.077886105 42.380237579
-9.170294762 1.702057362 47.233722687
20.348554611 1.417521119 50.804046631
16.593223572 -6.484071255 46.267822266
16.997190475 -6.511065960 46.339824677
2.571372271 2.105136633 47.703102112
2.590111494 1.958409071 47.511779785
2.570137978 1.927410007 47.494224548
3.338208199 0.213434011 46.608062744
4.904787064 -13.132683754 51.720005035
4.977079868 -13.628163338 52.106700897
3.285520077 -9.363657951 44.494449615
9.449413300 -13.933617592 43.937999725
9.317705154 -15.749580383 45.450675964
9.263451576 -15.529111862 45.256286621
7.090775490 4.054681778 45.578598022
-2.611535072 -0.135773063 55.362014771
-4.602541447 0.767356336 53.247753143
-3.477524757 -11.421307564 44.782096863
-2.701085806 -3.058233738 48.619800568
-2.833180904 -3.126611948 48.709785461
-6.785951614 1.123070121 49.528408051
-2.818348885 -3.123658657 48.613639832
1.177098870 -0.712471187 53.145057678
18.132043839 1.682836652 50.661315918
10.603692055 -14.938055992 48.673625946
6.620069504 -0.957304537 51.882469177
1.789463878 -3.224903584 55.188247681
7.186135769 -1.544117212 53.608192444
8.616896629 -2.894550323 48.544700623
9.794804573 3.347012997 48.364177704
6.598838806 -18.099420547 48.791717529
12.811625481 -10.860846519 48.964290619
4.905240536 -2.987455368 49.744098663
11.868410110 5.502970219 51.584888458
6.117941380 1.975144744 48.478645325
10.618041039 6.485605240 48.196239471
9.895663261 -1.674719334 47.192192078
6.286949635 7.729565144 50.326286316
-6.941202641 -3.954032421 48.267009735
4.834870338 -2.440731287 51.863243103
4.800352097 -2.495914459 52.050716400
7.288269043 -8.148531914 55.414352417
-3.682340860 -1.198187232 48.643627167
4.068936825 -0.425042450 50.896942139
-1.732465506 -4.626435280 50.148448944
-9.115707397 -0.034574315 51.272983551
0.956830084 0.326502055 48.030967712
6.049116135 -0.103259206 50.925720215
-4.638772011 1.324981093 50.852233887
12.659097672 -14.937216759 52.307506561
9.972741127 -6.476809025 50.349487305
10.220793724 -0.336237103 49.381855011
10.019461632 -0.424392611 49.222393036
-3.014361143 -0.257983238 52.150840759
-6.024023056 -0.985047817 48.082862854
5.458751202 -3.748412132 50.997104645
5.016812801 2.717745781 51.341899872
12.037192345 9.270085335 51.538745880
-1.457924962 -5.417529106 51.426651001
2.558855295 -0.943479300 66.082298279
2.547466040 -1.055938601 65.259086609
2.562160969 -1.119021654 64.816841125
6.903748989 -5.106089115 53.286361694
7.612174511 -4.796315670 58.700412750
20.810937881 -5.623462200 55.126930237
1.891339064 -7.654899120 49.356983185
15.493988037 -12.955607414 49.794509888
-0.725715399 -2.308553934 50.233154297
2.482891798 -0.934732199 66.145240784
5.932575703 -4.894534588 65.538909912
6.188488960 -4.767351627 65.344627380
0.053154040 5.806675434 53.549762726
-5.243733883 -13.431499481 54.623359680
5.715400696 -6.326979160 50.306922913
-0.574927926 -6.419530869 48.602336884
1.802476525 3.753307819 51.259666443
4.995608330 -1.500025392 55.105907440
6.824438572 -2.804500341 49.700870514
5.228195667 -3.687683105 52.227352142
3.153542757 1.534181237 62.391258240
-6.165496826 -11.223538399 52.428421021
2.407460690 2.033600569 52.507049561
14.628160477 -4.550652981 49.097267151
3.129661322 3.773015022 53.212112427
2.445252180 1.907788277 52.457862854
4.231466770 7.545894623 50.152332306
-1.723868608 2.083889008 58.781558990
-1.725121379 2.032138109 58.703376770
-1.699582577 1.940005660 58.670291901
7.035603523 -9.716333389 55.806041718
8.386752129 -9.872147560 53.923595428
7.066551208 -9.803342819 56.020832062
3.377906561 -1.009186745 53.777069092
4.884189606 -1.425873995 55.273624420
3.360412598 -1.044755340 53.859458923
3.419494390 -1.110146523 53.827983856
4.930102348 -1.496866107 55.718013763
2.401788473 -9.202880859 52.769947052
-3.498057842 -13.423370361 58.586647034
-3.621611118 -17.175598145 51.344821930
5.186483383 -12.777332306 58.286170959
-2.335444689 -7.010720730 50.987133026
1.092772603 -9.264000893 51.267841339
9.174031258 1.368373513 57.331314087
9.142115593 1.371440530 57.164096832
9.225508690 1.156070352 57.389263153
0.050930716 -2.913228750 50.964187622
4.779853344 -6.445726871 55.516387939
4.959690094 -7.022454739 55.064014435
4.421665192 -3.171891689 53.870765686
9.782524109 -0.841950715 56.545307159
9.752061844 -0.851135373 56.462085724
1.374679565 1.116866589 52.348957062
3.191983938 -3.434717178 63.685646057
-0.003247909 -2.379023314 53.741767883
8.821907043 -1.506207108 55.428722382
16.431154251 -10.192064285 53.719127655
-2.856343031 -11.094334602 53.506656647
-3.075068235 -3.919915915 55.599086761
5.940569401 -4.143313885 63.274883270
5.953586102 -4.162823677 63.295505524
8.846433640 -1.792807698 65.374839783
7.491336346 -1.544930220 56.500152588
8.350190163 -2.083174467 62.947650909
6.726546764 -2.699526072 53.666770935
6.745999336 -2.675256968 53.423000336
6.649465084 -2.718366623 53.686912537
15.666363716 2.082262039 55.074714661
8.325771332 -8.360419273 53.689785004
11.907152176 -7.947999001 53.570518494
8.974791527 -8.958273888 57.285305023
9.004577637 -8.959158897 57.288993835
-4.568845272 5.632194519 52.981956482
3.988956928 -3.507179022 57.061622620
3.978966236 -3.762919426 57.363666534
6.024889469 -2.660588264 54.758144379
6.020056725 -2.656276464 54.782947540
-7.810480595 -10.231712341 53.573009491
6.406544209 3.951476812 52.190139771
7.715269089 5.119937420 57.302280426
7.399179935 2.060834885 58.713436127
7.447262287 2.036604166 58.853393555
5.607573032 -4.153316498 64.170639038
5.256362438 -3.559816360 55.288661957
7.421825409 -0.925533593 55.180564880
9.582817078 -0.618600368 53.588157654
5.752102375 -4.913863182 55.936225891
5.527650356 -4.688612461 55.762828827
5.493275642 -4.702218533 55.652565002
2.924967289 -6.050483227 51.330825806
-4.507789135 -6.824306488 53.108848572
-4.101531506 -6.578754425 52.860759735
-0.044723123 -4.195478916 56.354320526
-2.956069469 -3.277955294 59.365993500
-3.237384319 6.631325722 53.861778259
16.388832092 2.075754404 52.163925171
12.024804115 1.900563717 55.408626556
11.952327728 1.887584925 55.277500153
10.170457840 -4.818865776 51.303596497
5.846910000 -4.653540134 65.992507935
-0.346633852 -1.686204553 54.308155060
11.657524109 6.491307259 55.256225586
-7.840078831 7.920193195 54.078601837
-5.786247730 1.697968960 52.564239502
3.309891462 1.778943062 52.719600677
3.368578434 1.779552937 52.695049286
4.085287571 -3.241044760 55.903163910
9.555645943 -2.411018848 57.131862640
10.326199532 -11.094037056 64.472885132
8.775003433 -3.559904814 60.281681061
-0.554948330 -9.839798927 55.569110870
4.455244541 -7.083883762 69.761512756
13.450688362 3.884788513 59.690967560
-4.979159355 -11.224959373 57.341800690
-2.379744530 -2.875911951 52.965446472
-2.319395781 -2.911826611 52.886726379
-2.962582588 -10.065207481 56.129322052
5.692472458 -3.852587223 59.483036041
5.566985607 -3.579372168 57.916328430
5.549359798 -3.561953545 57.945560455
8.640122414 -3.308237553 61.805271149
8.559837341 -3.250357628 61.329032898
5.224983692 -3.194802999 55.170150757
4.780047894 2.081130266 56.549938202
7.564515114 -4.170349598 67.753829956
5.986984253 -4.694509029 54.899417877
0.880696476 -5.659536839 60.167045593
11.268931389 -8.151894569 59.251811981
8.754849434 -3.785946846 54.815212250
2.524285316 0.531312048 53.149185181
7.150092602 -0.452233166 58.772415161
3.277656555 -6.631068707 55.245460510
4.497479916 -3.010384321 54.090457916
3.345342398 -4.157382011 53.787673950
4.385840893 -4.197812557 54.695526123
4.399961472 -4.216834068 54.698047638
5.199997902 -4.057147503 55.780578613
4.388975620 -3.655956745 57.178188324
10.170834541 -7.869391918 61.580673218
10.606697083 -3.245121002 54.332920074
9.932798386 -7.409768581 60.641544342
9.839369774 -7.368510723 60.566257477
1.513265610 4.907876492 55.678642273
1.567510962 4.710915565 55.452575684
-2.039547920 -5.701616764 55.685272217
9.148789406 -3.317090511 55.788162231
3.488459826 -10.258952141 62.248287201
3.529843330 -10.123495102 61.816101074
1.883541346 -4.259047508 54.704074860
9.846026421 -4.893016338 53.417770386
18.734823227 -14.937059402 54.089824677
10.242575645 -5.029691219 57.707000732
1.832851887 1.030019760 56.003040314
-0.151293933 -12.483586311 54.947372437
11.506540298 8.135994911 59.680519104
-5.432363987 -2.925912142 59.762981415
5.398499966 -4.107624531 59.384262085
5.410374641 -3.351852179 56.177371979
5.476188660 -2.975896120 61.552032471
5.908520222 11.668326378 56.812366486
1.298544526 -9.706166267 63.001476288
-2.179262161 -3.582845926 59.131744385
-8.989124298 -8.297973633 59.263839722
-0.671703875 -3.473804474 58.298381805
1.671675563 -10.803344727 58.516048431
5.378676891 -3.398964405 56.222705841
5.402959347 -3.398408175 56.234230042
5.134407520 -3.820292711 56.731468201
0.886864305 -5.700898170 55.213844299
1.426763892 -3.902843475 56.963058472
4.648636341 -3.833729029 56.185398102
5.491040230 1.259783864 55.038070679
5.541444302 0.410436869 55.266391754
11.741260529 -12.353099823 58.188182831
-0.991665244 3.108478546 57.029052734
11.930486679 -10.564606667 59.048072815
7.096436977 6.031961441 55.680587769
5.167030334 -16.661655426 53.755096436
5.126699924 -3.823267221 56.742744446
5.403027058 -4.271471500 61.646762848
5.771995544 -4.381222248 63.229553223
-1.822868943 0.732477427 61.400218964
6.059851170 -5.981060982 69.163070679
1.384724975 -5.991631508 54.860164642
3.272907972 -0.031887691 62.271808624
3.299384832 -0.063077755 62.124500275
11.231780052 6.275751591 65.285514832
3.278795958 -6.601657867 56.333324432
9.176029205 7.211713791 60.779525757
7.818142891 6.546458244 59.744304657
5.502323151 3.258527279 63.882301331
9.363066673 -6.355051041 55.888046265
-1.191125393 -2.731655836 64.371154785
4.253362656 -1.206605315 56.146038055
3.844002247 -2.696129322 59.675331116
3.954782486 -1.649991632 57.971328735
3.807470560 -2.730384350 59.803153992
3.598748446 -2.936920166 59.674518585
3.631026983 -2.911440849 59.576965332
1.999365687 -5.567580223 55.652458191
0.153536126 -7.385133266 62.419116974
0.197158813 -7.382115364 62.353153229
-8.312138557 -6.463145256 62.284172058
0.465610534 -7.451723099 62.409702301
3.475352287 -6.180230618 58.437976837
11.879551888 0.164976284 57.745765686
-0.138521314 -10.136765480 54.497165680
5.166619301 -5.527109623 59.747882843
3.192899227 -9.688310623 58.256561279
11.474387169 -3.466376305 54.808162689
-2.266801834 -10.143300056 57.596549988
-2.370766163 -10.254627228 57.702239990
8.300231934 -1.924684405 62.316898346
8.382568359 -12.588041306 66.936920166
9.535498619 -7.625031471 63.772182465
11.194482803 -6.178327084 56.800979614
-0.842381179 -4.407676697 57.620998383
6.015069008 -5.272374153 72.269927979
6.538316250 -8.303722382 59.554439545
5.707045555 -3.271064520 58.713493347
5.974120140 -5.215244770 72.032135010
-0.326839715 -0.680938780 65.939361572
14.485479355 -2.987752199 60.459476471
14.264836311 -2.943971872 60.349212646
1.112904072 -11.176296234 62.906120300
6.229874134 -1.476086020 66.668548584
4.526126385 -5.177847862 61.322605133
6.898868084 -12.846331596 56.865676880
6.891130924 -12.527550697 56.510082245
6.976234436 -13.819542885 56.733863831
-4.642574310 -14.230093002 58.202587128
10.258728027 -3.938689709 56.999557495
1.109844923 -0.103899859 57.332271576
9.220129967 -5.755042553 71.719757080
8.260953903 -4.960793018 63.252880096
8.280743599 -4.941554070 63.374206543
8.239178658 -4.480078697 60.891387939
7.392909527 -18.245586395 65.903617859
16.629255295 -0.156030670 62.803501129
4.432305813 0.408517390 67.760574341
-2.065090179 -5.696259022 66.416091919
-2.078678846 -5.709968090 66.458305359
1.672179937 -11.880455971 59.086280823
0.379672855 -18.777400970 59.445075989
4.333186626 -1.804125667 61.676555634
5.171742439 2.877750397 61.386997223
17.190551758 -5.377657413 60.360397339
17.308929443 -5.452140808 60.419834137
9.908082008 -3.187200069 57.151721954
2.708540440 -8.355712891 58.397857666
2.719864845 -8.345659256 58.361724854
-3.080652952 -9.333051682 64.456123352
5.965293407 -5.115631580 71.831626892
3.430382252 1.092354417 59.227508545
-2.847338200 -4.940280437 63.249885559
17.396171570 -1.807967544 60.391960144
13.870738983 3.716097116 60.153953552
13.875484467 3.713260651 60.154121399
3.726507187 -11.259661674 56.824008942
3.699889660 -11.342554092 56.863018036
3.697027445 -11.355087280 56.885082245
-1.487600088 -4.776773930 62.259250641
4.876184464 -4.455379009 58.991462708
4.847267628 -4.360426426 58.560955048
-6.668764114 5.002209663 60.677055359
7.252940655 -9.801300049 69.587402344
5.521255493 -6.190570831 61.127883911
6.378771782 -7.255386829 64.794677734
9.408754349 -11.669444084 61.540142059
15.645329475 -2.675784349 60.248500824
-5.268852234 -7.847652435 57.335796356
16.001110077 -7.018098831 58.975666046
3.977024555 -3.078134537 59.790134430
2.338960171 -4.536319733 63.789527893
2.382872105 -4.438421249 63.607265472
6.673009396 1.478919744 61.324985504
16.150808334 0.053565118 58.229629517
11.371272087 -2.738632202 60.326389313
0.459952801 4.770561695 61.204799652
0.292936802 -9.516075134 63.358177185
7.761255741 -1.888895631 63.281620026
10.824042320 -0.909337401 74.452453613
7.583165169 -2.409227610 63.945762634
7.537676334 -14.337195396 62.514129639
3.416015148 -1.599089503 70.021583557
8.966036797 3.791927099 63.822036743
6.966585159 1.441111922 60.623191833
8.997920036 3.818099976 63.893295288
2.377443314 2.542095661 64.838043213
2.285186768 2.652823210 65.143722534
4.823779106 -4.812117577 60.567619324
1.865468025 -1.554338813 60.180309296
0.982736230 -6.125459671 60.025333405
5.563234806 -4.267962456 60.800086975
-0.958601296 -12.759472847 58.851600647
3.597467661 -4.277721882 61.502216339
-3.591991425 -1.938304424 66.721359253
4.347681999 -12.305496216 58.993675232
4.469439030 1.604507089 59.833221436
0.998974919 -10.976813316 61.559070587
2.527757406 -16.299560547 66.738868713
11.966878891 -1.986477494 59.175010681
11.303755760 -2.426496267 63.085021973
16.128122330 -16.360307693 59.980033875
20.787986755 -1.089066505 64.890327454
13.412775040 1.270646572 59.791275024
5.915898800 -8.782763481 60.488521576
11.891370773 -2.302346945 63.405250549
5.574303150 -4.265166759 60.843585968
5.676271439 -6.017475128 60.766479492
6.349258900 -5.553036690 59.771465302
7.692994118 -3.949197292 60.472164154
5.580320358 -4.264561653 60.831447601
3.395013809 -3.904401064 63.444286346
13.790760994 5.040550709 62.422561646
1.873610258 -4.451334953 67.730781555
0.216371953 -0.852052629 71.108856201
5.194672585 -3.663758278 60.981277466
5.493987560 -5.031448841 65.730354309
6.169964314 -10.027570724 61.274642944
4.943747520 -17.851825714 62.048027039
5.426022053 -18.142808914 61.757236481
6.119164944 -4.921824932 64.823867798
6.109204292 -4.922996044 64.897987366
5.207375526 -10.356225014 60.858985901
-0.360165060 -14.629666328 59.028827667
0.089785613 -14.367101669 58.856166840
-0.640236259 -10.398711205 67.789871216
-4.124640942 -3.605760574 61.912418365
-1.260292172 0.852352858 63.388095856
2.091150284 3.364908695 68.203514099
-6.175770283 3.605803013 66.340026855
6.195323467 -3.756357670 61.564762115
5.510323524 -2.916399479 62.202533722
9.502483368 -5.229624748 78.256973267
6.191533566 -3.368396282 63.885738373
-6.708630562 -4.969654083 64.715522766
4.121451378 -4.417462349 63.008335114
4.915455341 -3.944683313 62.478145599
7.164977551 -5.602471352 72.014747620
6.761377335 -5.439800262 72.214691162
6.720545292 -5.418975353 72.018844604
6.840826511 -5.474399090 71.353309631
6.872930527 -5.415615559 71.623725891
6.756691933 -5.444622040 71.410797119
6.766723633 -5.427680016 71.442771912
3.436719179 -0.991191089 74.280059814
4.031256199 -3.333841562 72.313888550
8.559029579 -9.011073112 70.558914185
19.273323059 -11.568812370 60.585269928
-4.658155918 5.553610802 61.902774811
-4.653145313 5.462625980 61.870666504
11.182132721 -12.172639847 62.800529480
4.111321926 -4.418026447 63.015991211
3.260656118 -5.299990177 67.398910522
-4.063588142 -7.593994617 62.160938263
-1.625868559 -7.059206009 62.075485229
6.104436398 -5.185807705 77.596801758
6.152532101 -4.739246368 65.070045471
6.157650471 -4.763516426 64.975502014
6.158771515 -4.757387638 64.952537537
7.133371353 -2.030389071 68.703201294
3.365050316 -10.581877708 65.840934753
-0.979358852 11.223347664 62.870349884
17.753118515 8.648604393 66.007514954
19.761032104 -5.484239101 63.813926697
19.605039597 -5.438470364 63.731658936
6.067929745 -5.180108070 77.424156189
7.125394821 -5.631538868 79.116691589
7.155896664 -5.615119457 78.885337830
17.159585953 -7.293982983 70.881172180
7.721827507 -6.236484051 69.704154968
6.752692699 -5.574734211 68.036125183
9.101637840 -10.972110748 68.891921997
9.267878532 -8.734156609 71.369667053
9.259976387 -8.687807083 71.283668518
8.950221062 -8.072944641 69.794235229
8.600708008 -11.296569824 61.909339905
9.150074005 -8.617362022 71.032051086
13.076260567 -5.738768101 69.923118591
6.728531837 -5.858104706 71.716026306
6.822155952 -1.712664366 70.787406921
7.935051441 1.235074759 76.340934753
8.110466957 1.303539395 76.989639282
19.843427658 -8.158101082 62.979110718
2.313936710 -4.304602146 67.313751221
17.086612701 -2.306796789 70.153114319
4.406420708 0.466445506 70.899749756
15.197946548 -7.510636806 63.399776459
5.719469547 -4.332053661 66.198722839
8.422636986 3.485690594 68.064682007
5.597665310 -4.700200081 66.415824890
5.580714703 -4.558737278 66.208862305
6.299357891 -1.839286447 63.969600677
3.878520489 -6.193358898 69.815231323
-1.854145050 -8.196734428 67.447387695
-4.435760498 -5.830500603 67.352134705
-4.534335613 -5.847413540 67.467041016
-4.741671085 -5.836822510 67.441871643
10.414297104 -3.580834150 67.955169678
5.712082863 -4.651808739 66.309463501
7.126808167 -5.165659428 80.134155273
7.442612648 -5.222809792 77.636840820
7.773050785 -5.738174438 68.234077454
7.675699711 -8.028737068 72.182815552
8.385241508 -6.768432140 65.940269470
10.537549973 1.337255120 74.492835999
10.161830902 -20.738075256 66.673561096
10.141172409 -20.672328949 66.639633179
10.053354263 -19.645637512 66.195518494
10.078909874 -19.622268677 66.184120178
5.012195110 -1.797472000 68.464088440
5.013379097 -1.830862284 68.363693237
6.141674519 3.483515739 66.113777161
4.628128529 3.590396166 66.411743164
5.715522289 5.967334747 68.967987061
15.615186691 -14.068369865 61.717662811
0.163031965 -10.786448479 73.685470581
-2.416115046 -12.406847954 68.246589661
4.429370880 5.194874763 66.669380188
11.599491119 4.456710815 67.461906433
7.932281017 -3.915983915 68.236167908
6.022874355 -4.933777809 73.202239990
8.494158745 -4.029733658 68.066207886
5.934055805 -4.829801083 69.352989197
5.882812977 -4.703734398 67.859039307
5.882215500 -4.709457874 67.866897583
14.426469803 -7.357090950 74.985374451
15.561382294 -6.488812923 67.115432739
1.882119894 -6.628845692 65.179519653
-2.519966125 6.784888744 68.203948975
12.407882690 1.287785292 65.063781738
6.523735046 -4.884163380 67.212814331
4.532443523 -3.931251287 68.241127014
3.272098303 2.780704021 79.998481750
2.544943094 2.638764620 79.981315613
2.724111795 2.525732040 79.005645752
6.477846622 -5.784773827 73.178695679
1.866149664 -1.857546329 65.763381958
4.354353428 4.992702007 66.756874084
15.165108681 -17.768890381 67.211669922
-1.193248749 -1.647098303 69.277427673
5.654980183 -2.612968683 82.507125854
5.249897957 -4.700291157 74.206726074
5.882488728 -4.193262577 71.692054749
5.235446453 -8.907912254 67.301750183
1.680622816 -5.973613739 67.858482361
6.508561134 -6.177456379 80.797927856
9.316718102 -6.361626625 80.072731018
11.276117325 -5.624786854 69.707252502
5.421892643 -5.283286572 67.141799927
8.043465614 -8.572307587 77.462532043
6.948421001 -6.473300457 68.117660522
6.703922272 -8.791742325 78.617546082
6.964893341 -9.718201637 71.884521484
5.672676086 1.256778121 68.773635864
6.556561947 3.646356344 73.719818115
6.568496227 3.732664824 73.826545715
6.576020718 3.742516279 73.847473145
12.769925117 -3.246008873 69.035728455
12.871507645 -3.210995436 69.051033020
13.017997742 -3.129431248 69.275924683
13.077818871 -9.620219231 71.300476074
6.055975437 -4.883600712 70.592262268
6.054827213 -4.799418449 69.669303894
6.606564522 -4.640160561 67.328666687
8.555702209 -3.948062897 83.688781738
6.478122711 -3.633255243 70.809089661
6.497012138 -3.634268761 70.729209900
7.113464832 -6.487033367 76.550491333
7.157542706 -6.522920132 76.521118164
1.786158562 -8.282805443 68.292373657
1.797176361 -8.299134254 68.293281555
-0.977285087 2.737411737 74.417259216
2.682162523 -3.214822292 70.935943604
2.625961781 -3.252850533 71.084045410
-0.310935557 -10.037003517 72.231536865
4.104795933 -4.704746246 69.477966309
6.743731499 -2.783214092 67.500198364
7.226737499 -6.402091026 69.269432068
6.457105637 -5.075553894 83.488693237
5.852364063 -5.077253819 71.307464600
5.571478367 -4.805400372 68.543968201
5.836503506 -5.034147263 70.865493774
5.765177727 -4.958465576 70.099006653
4.210698128 -6.695144653 75.119415283
5.532746792 -12.049448013 72.304534912
3.524941921 -6.429249763 69.220809937
8.588886261 -16.831062317 68.608345032
9.657567978 0.546581745 69.516822815
0.773115277 -11.725279808 73.659378052
14.481099129 -2.478915215 77.967094421
-1.827453852 -12.446042061 69.620223999
3.729997873 -5.534566402 72.345870972
3.738709450 -5.530858994 72.350921631
13.995839119 -16.561223984 66.209732056
5.711794853 -4.876520157 69.895416260
6.739581585 -20.604497910 70.203620911
5.144607067 -9.123826981 71.961441040
9.576669693 -14.700440407 78.075958252
0.543668330 -1.935154200 70.768882751
6.277645111 -3.153373718 70.321914673
4.929870605 -5.660396576 75.515014648
5.224514008 -4.245384693 71.301559448
4.932038307 -5.213634491 72.970191956
3.447875500 -6.655041218 71.095176697
3.444215298 -6.652852058 71.094192505
-1.184290886 -1.728118539 78.340866089
-4.660669804 1.187939644 79.439712524
-4.646398067 -4.466975212 76.275444031
11.000269890 -2.076590538 69.326507568
8.234044075 -8.332767487 73.810333252
10.597958565 9.500775337 69.788932800
4.540534019 -10.671790123 69.014045715
3.261615515 -6.006382942 72.354423523
4.972580910 8.031847954 71.182914734
4.991789818 7.993762493 71.158996582
3.356346846 -20.214776993 72.582679749
2.197420359 -5.558444500 70.961914062
8.875393867 -7.499539375 72.933959961
3.606464863 -19.594406128 72.575988770
3.527480602 -19.990915298 72.543502808
12.685921669 -3.459227800 71.368103027
10.762895584 3.514903784 71.184936523
12.643091202 -3.492759228 71.340415955
5.646550655 -11.559908867 77.084091187
5.252266407 4.907180309 72.589973450
18.803373337 1.082733393 73.755668640
0.923219383 -4.140396595 71.766990662
6.097384930 -5.115392685 72.599372864
5.920907974 -5.099245548 71.425109863
-2.519366503 3.568706989 73.927635193
-3.195899010 4.509610653 74.138648987
5.294752598 -5.804034233 86.768745422
5.681782722 -5.601869583 73.190338135
-3.433853388 -13.277516365 70.513374329
4.329331398 -18.001060486 72.374053955
5.812437534 -2.058714390 73.352539062
14.558701515 -11.122653961 69.509407043
6.611130714 -8.459988594 71.844779968
18.202928543 0.890823841 73.539657593
5.971388817 -4.713123798 72.979003906
9.715235710 -11.352355003 83.337394714
6.531836033 -6.029860497 79.637512207
4.364247322 -6.852992058 75.592453003
-2.405608654 -10.278670311 72.734138489
0.419650197 -8.796474457 75.850013733
6.551117420 -5.784087658 78.832153320
6.748654842 -5.921514034 79.123237610
7.012945652 -6.175857544 85.194702148
-1.254416943 -2.887691259 72.669242859
-1.210557818 -2.927290916 72.592590332
2.874659777 -5.757416248 72.553642273
6.032586098 -5.660807133 73.002914429
5.829377651 -5.239945889 72.849395752
5.836892128 -5.243427277 72.777465820
6.441997528 -5.378659248 73.785469055
5.923492908 -5.629204750 73.140396118
11.358176231 -9.156106949 78.469390869
8.458211899 -6.149940491 75.199028015
12.585164070 -7.852700710 75.050621033
9.218354225 -8.959606171 74.553825378
5.494699001 -7.334531784 73.649581909
6.748569965 -6.277749062 84.974990845
2.710912466 -7.475285530 81.672584534
5.899580002 -6.039419651 87.166572571
2.711341143 -7.439527035 81.649162292
5.991643906 -6.097688675 86.511718750
2.709570169 -7.461571693 81.700080872
1.568242550 -9.387403488 77.659164429
7.883328438 -10.313556671 76.599304199
7.271839142 0.911889553 82.804801941
2.851500273 3.721590996 73.489799500
6.187627316 7.808951378 75.564575195
2.656847239 2.674945831 73.811210632
2.567412615 2.966770887 73.520690918
10.900546074 -1.150029540 80.231369019
2.871421814 1.527658343 73.597999573
4.502948284 -5.463053703 80.203002930
3.390363932 -5.292383671 87.652374268
8.013839722 -5.080586433 85.374511719
14.697909355 -0.928134918 80.827911377
13.656539917 -6.966657162 76.291931152
10.225164413 -8.517258644 72.249641418
11.391997337 -5.553651810 75.726562500
11.381116867 -5.518158913 75.697532654
1.433237791 -5.721192360 77.916107178
3.841355801 4.513082027 74.437721252
6.270998478 -4.932253838 73.208015442
7.575381279 -6.780798435 80.435485840
7.556825638 -6.700012207 80.281250000
6.384994030 -4.858050346 73.207221985
9.360365868 -7.541155338 80.041992188
5.956137180 -4.868294716 73.046844482
0.898028612 -9.192728996 80.604667664
-3.081282377 -10.745362282 83.846992493
2.253220081 -9.479536057 78.053733826
-3.732021570 -11.940710068 73.845970154
-1.230380535 -12.053119659 71.801498413
14.956009865 -13.708081245 72.061645508
10.791461945 -1.092068195 79.912673950
6.072081566 -5.140068054 73.225608826
6.655489922 -6.236211777 82.942131042
15.762240410 -15.455362320 77.892478943
6.707359314 0.383169264 74.045654297
6.764275074 0.337317646 74.004837036
6.772446156 0.334689349 73.999084473
8.856206894 -6.955228329 79.563163757
5.739897728 -4.136479855 76.674873352
1.206370473 1.599228144 77.125167847
0.726642907 2.143296242 77.703620911
1.718883514 -14.493913651 83.747253418
3.005086422 -12.290319443 76.403030396
4.060046196 -11.365247726 73.615844727
4.155508995 -12.088519096 74.235267639
-0.218650892 -15.484467506 73.606834412
-1.395918489 -16.310722351 74.840675354
-1.660737991 1.949470043 76.038230896
14.837550163 -13.603754997 76.235832214
9.108778000 -8.314335823 74.545906067
6.092051029 -5.879948139 76.326858521
10.161196709 -8.535300255 72.361572266
-1.249775290 -5.860847473 78.563247681
10.158830643 -8.543796539 72.358932495
8.279793739 -10.506400108 77.254959106
6.004468918 -5.744596958 77.388801575
1.933086753 -6.193235874 74.063217163
4.179598808 0.608411431 83.264480591
12.829462051 -3.061879158 77.695869446
2.959617615 0.343293965 76.547836304
-2.460716963 8.564570427 76.733146667
13.854782104 1.088781595 78.937919617
11.527901649 -15.315052986 78.016372681
-5.024928570 -7.347517490 77.116546631
6.985835552 -5.649978161 81.248092651
10.206016541 -8.499254227 72.379371643
6.124234200 -5.920475006 76.409469604
6.038627625 -5.163325787 73.755172729
1.543280721 -8.156863213 74.048606873
1.545791984 -8.170493126 74.055824280
2.368534565 -1.990607500 75.670318604
1.813634276 -8.305544853 74.564941406
-0.655790150 -9.212719917 77.582916260
-0.398479313 -9.098447800 77.274749756
-0.332601577 -9.096364021 77.187019348
6.693533421 -5.580051899 77.087387085
3.251240253 -11.201927185 73.656333923
8.755030632 -5.184298038 73.493370056
10.490468025 -3.259766102 73.275611877
12.845082283 -9.252901077 72.870071411
7.400921345 -3.930202246 76.194213867
8.089502335 -3.834491968 78.387809753
8.023131371 -3.795956135 78.627471924
8.023290634 -3.780194521 78.730766296
8.002940178 -3.788516045 78.700660706
7.981309414 -3.774222136 78.783897400
7.865241528 -6.755972385 83.515571594
7.493750572 -3.426481485 78.213813782
-7.728899956 -1.256808996 79.039710999
6.946229935 -7.794295788 76.386711121
-5.736247063 0.566439986 74.915191650
0.642607212 3.236364126 76.511039734
1.187807083 -1.889257908 75.026062012
-0.215065151 3.793008804 80.310920715
19.320386887 -8.029007912 77.123153687
19.835704803 -8.165790558 77.427642822
-1.264783978 0.191873014 74.583282471
7.812103748 -4.327625751 78.538230896
15.422589302 -1.610134244 79.861602783
7.299096584 -8.792430878 79.717445374
6.833506107 -8.244477272 79.891532898
7.540261269 -8.849813461 80.366004944
4.077557564 -5.964661121 77.085266113
10.123855591 -2.633698463 79.795082092
13.903251648 -2.927837133 82.752960205
8.708168030 -3.155573130 78.951057434
8.744579315 -3.095289469 78.956153870
14.514340401 3.092643023 77.541954041
8.356073380 -7.966625214 78.200675964
2.894388437 -14.748662949 75.019287109
5.849909306 -12.652825356 78.527427673
7.085950375 -11.463866234 75.715812683
4.540357590 -2.956453323 86.630989075
6.480317116 -12.414473534 76.491439819
-0.338414937 8.539270401 77.083076477
10.998834610 0.211630240 80.845405579
11.542509079 -5.422553062 75.112205505
20.440076828 -9.422154427 80.534057617
11.664073944 -5.554296970 75.197441101
6.617822170 -6.649503708 87.780204773
7.964385509 -3.419017553 80.598129272
7.733553410 -8.050857544 78.013351440
12.375638008 -8.208816528 82.372703552
5.482283115 -6.804987907 90.439018250
5.653563023 -6.532846928 78.678024292
5.481485844 -6.922207832 91.000785828
5.696026325 -6.518268108 78.733093262
5.573018074 -6.597417355 78.569709778
5.822637558 -6.233783722 80.778900146
5.492695332 -6.537917614 78.402893066
7.966820240 -0.918538928 78.905426025
7.273415565 -3.244696140 78.662635803
7.270441055 -3.225334644 78.678779602
2.498491764 -1.299899817 77.720901489
2.490369797 -1.222822905 77.826416016
2.512413263 -1.274741054 77.748565674
2.521114588 -1.317358494 77.688392639
2.518044233 -1.324676275 77.679824829
2.539052248 -1.347171426 77.641937256
17.161432266 -5.717718124 74.429176331
17.126567841 -5.691789150 74.382476807
6.577404976 -6.670968056 83.046516418
8.749561310 -9.486716270 87.763526917
7.254925728 -6.565447807 78.052581787
8.734081268 -9.466513634 87.746887207
9.050729752 -9.577273369 89.184867859
5.876081944 -7.904322624 86.090126038
4.912363529 -11.043031693 76.623718262
5.311353683 -7.503193378 93.727302551
6.608293056 -5.817237854 81.217109680
7.992938995 -3.194284439 82.620246887
4.441968918 -15.404286385 87.072113037
9.036183357 -6.944662571 89.289573669
-1.986495733 -4.704570770 84.418754578
-2.802067757 -4.894864082 85.597778320
19.100976944 -5.586011887 78.395774841
0.694392741 -20.747161865 80.520668030
18.893251419 -5.576181889 78.276702881
2.805542231 -1.518252611 78.573066711
6.679725647 -5.894757271 81.351585388
3.668979168 -7.036406040 84.730972290
4.504555225 -6.509724140 78.992324829
3.676733255 -7.054305077 84.870666504
4.505916119 -6.522926807 79.020675659
3.728666544 -7.336996078 86.133255005
3.739276886 -7.279610634 85.846298218
3.719368696 -7.271178722 85.761146545
3.742596149 -7.293094635 85.822647095
14.383667946 8.752923965 80.567237854
8.937520027 0.899855554 78.206558228
-2.581820965 6.526405811 82.604598999
10.348887444 -6.469788074 82.048599243
8.024403572 -5.251900196 81.268226624
3.046448469 -3.328947067 81.079116821
6.386043549 -4.520277977 83.696136475
11.224884033 -8.487707138 77.445663452
8.213366508 -6.233027935 77.677734375
3.125068903 -8.763471603 81.253372192
3.825017929 9.196324348 80.954826355
4.725938320 -14.340803146 78.439109802
6.687333584 -6.121320248 80.445075989
5.707934856 -3.910284281 78.417709351
6.313181400 -4.634508610 83.836334229
6.433765411 -5.592285156 79.358222961
4.582852364 2.076668978 84.322555542
0.455183268 -9.713496208 78.860870361
2.298097610 -6.963670731 92.464920044
12.728222847 -7.396911144 82.684898376
8.745859146 -6.252761841 80.554458618
8.443764687 -6.289904594 80.335121155
5.477443695 -7.304224014 85.821594238
5.764412880 4.762486458 82.814468384
14.586278915 -8.693069458 79.761634827
8.688519478 -6.217222214 80.550338745
7.684767723 -8.488328934 86.034637451
12.635946274 -5.579354763 81.752998352
7.682108402 -8.532949448 86.095252991
8.668376923 -9.007730484 78.077323914
5.740341663 -4.743258476 80.628746033
5.684204578 -4.673394680 80.693428040
1.204848051 -9.709805489 79.910568237
2.377219677 -9.442031860 79.574607849
8.145795822 0.837684214 89.211547852
8.261014938 -12.684398651 79.037651062
7.665426731 -17.027963638 80.065399170
7.680603981 -16.957168579 80.015876770
-2.655239582 -4.093195915 91.199020386
7.725326061 -8.523241043 86.116294861
6.119732857 -7.703122139 80.975242615
7.326364517 -5.196907997 83.998374939
17.677316666 -8.567812920 85.127235413
2.729037762 -12.228842735 79.515930176
-4.066303730 -11.036980629 83.422813416
15.191350937 -5.829401970 85.963088989
7.436064243 -7.992801666 79.554100037
-1.284328461 0.535328388 82.495124817
17.441473007 -4.051380634 87.587982178
5.747230053 -6.165564537 81.380653381
6.698653221 -6.450170517 85.124885559
5.707355499 -6.190062523 81.266830444
5.710940838 -6.185995579 81.261367798
8.957798004 -4.681304932 83.368705750
6.410152435 -6.540351868 84.407211304
6.413801193 -6.536445618 84.365470886
14.856784821 -9.453846931 80.536239624
-3.803476334 -18.383375168 82.422973633
-3.269876003 -6.994003773 78.793373108
10.331828117 -11.257306099 79.687004089
17.333667755 -4.433925629 83.330558777
8.001713753 -3.872950315 85.855995178
12.080733299 -10.137931824 78.237945557
4.718409061 8.232664108 86.302314758
10.837183952 1.543865561 89.593551636
-7.086838245 -7.354707718 84.476837158
1.524027109 -6.397826672 81.768196106
5.533509731 -14.487959862 79.185218811
6.496651649 -4.906761646 83.824417114
15.479012489 -17.340490341 78.009147644
5.442998886 -5.990867138 82.752021790
5.015240669 -6.796185017 81.779739380
5.012590885 -6.831333637 81.711006165
-0.302080989 9.926082611 87.142890930
9.816778183 5.144114494 82.047409058
13.165455818 -0.805591226 81.558975220
15.573478699 -7.442688942 81.099632263
10.547350883 -9.077149391 80.046928406
22.703758240 -2.789740086 80.285972595
-3.953233004 -15.716242790 82.719390869
8.281994820 -12.479102135 85.354682922
5.010989666 -6.790894032 81.781036377
21.031259537 -11.654532433 89.069381714
6.334045410 -6.255677223 83.109252930
6.468458652 -10.769861221 91.856697083
6.419374466 -10.708676338 91.473884583
5.151968002 -3.593878984 86.237640381
0.008636343 -16.135253906 82.371719360
0.300877243 -15.682907104 82.213760376
1.218627930 -14.702641487 81.613853455
1.262637377 -14.638895988 81.559310913
4.697716236 -10.804564476 88.482002258
-5.817940712 -0.751269042 84.416374207
13.003917694 -9.272344589 83.513908386
-3.190648317 0.805033743 87.036529541
13.310514450 -8.901341438 83.803337097
17.125747681 -12.981443405 83.472557068
-7.123421192 -12.706726074 85.507972717
-7.054660797 -12.672151566 85.495368958
7.002730846 -6.941072464 89.473968506
7.019293785 -6.902907848 89.394561768
6.983328342 -6.882097244 89.420524597
6.804988861 -6.131395817 83.940986633
6.986002445 -6.863111019 89.453201294
6.982151508 -6.862873554 89.447250366
6.796924591 -6.135324955 83.953216553
10.210784912 -0.028806705 84.539970398
10.622346878 2.432923555 86.605255127
0.520719290 -6.503764153 82.138679504
-0.867199719 1.552337766 85.124519348
5.651808739 0.211068675 85.101493835
8.927476883 -5.861333370 86.125976562
-7.816145897 2.651692152 85.291595459
6.767580509 -6.136461258 83.792930603
4.874479771 7.963401794 88.324462891
0.290031999 -11.544512749 83.332946777
5.546074390 -6.801804543 86.136787415
3.749293089 -12.130653381 83.918510437
4.726341248 -21.799264908 89.383674622
4.725431442 -21.844963074 89.421257019
7.402121544 -3.573394775 90.410758972
12.254826546 -3.038158894 85.340866089
6.488344193 -5.752445698 86.347480774
6.546296120 -5.687852383 86.503929138
-0.886264026 -4.547554970 89.454429626
-1.888265133 -2.661188126 85.129066467
-1.829420924 -2.700719357 85.039459229
-1.738906860 -2.701218367 85.010032654
2.023320436 -3.760982990 83.533081055
15.936874390 -4.662069798 82.270088196
2.569504738 -16.192646027 86.616783142
-6.882051468 -14.490948677 83.093551636
-8.994859695 -0.888107300 87.625457764
5.648821831 -7.712193966 97.868736267
6.676490784 -6.585103512 90.204246521
5.329800606 -5.600399971 93.616836548
5.790167809 -7.768591881 96.524009705
6.809115887 -6.876100540 88.997512817
6.785694599 -6.991908550 88.614967346
5.533335209 -7.617671490 100.557174683
14.807589531 -1.832916498 83.980293274
1.632560372 -5.395468235 85.845016479
18.569145203 -7.433777809 88.677192688
10.553065300 -12.301753044 82.654571533
5.673366547 -6.852022171 87.875961304
7.768977165 -7.610873699 85.583686829
7.764819145 -7.610746384 85.676979065
-3.269293785 -6.558255672 87.936203003
6.536088943 -6.071369648 84.485839844
6.542412758 -6.054242134 84.487693787
6.598238945 -6.087633133 84.403640747
6.520846844 -6.960866451 85.679168701
6.411425591 -7.005993366 86.093559265
6.364140987 -7.013043404 85.957328796
6.457757950 -7.036205769 86.043319702
6.663098812 -7.151407242 86.335418701
8.465726852 -10.384057045 93.327018738
8.427992821 -10.352076530 93.133514404
8.874406815 -17.161718369 84.604614258
9.885565758 -13.681276321 87.238204956
9.489978790 -17.029750824 88.618591309
15.275094986 -12.900916100 89.038780212
9.357375145 -3.757539034 86.872100830
15.297680855 2.345295191 91.245185852
5.530416965 -12.744013786 84.846206665
5.645795345 -12.298675537 84.439567566
7.500523090 -8.058371544 89.279594421
7.563333035 -7.819262981 88.953193665
1.941937923 -2.239760160 85.398681641
1.889624476 -2.217666864 85.422271729
12.285310745 -5.164425850 91.152336121
9.164085388 -0.191317648 89.121452332
14.355195045 -5.502606869 93.518119812
-5.263728142 -6.540747166 91.389518738
-2.169341087 -7.278578758 88.715782166
0.859784484 -8.417705536 86.253425598
5.052864552 -17.808521271 88.654418945
5.044798374 -18.103401184 88.874694824
0.353706390 -10.755449295 86.764366150
6.419318199 -6.843184471 99.991600037
6.557423592 -6.645381927 99.155342102
0.787596226 -8.578177452 101.028396606
7.071987629 -7.637928963 89.587783813
12.800720215 -10.916496277 86.357368469
7.045670509 -1.915250540 97.164932251
6.218849659 -5.586826324 89.206588745
6.248060703 -5.573090553 89.132705688
6.238706589 -5.577562332 89.161651611
-4.232635021 -1.045784116 92.784011841
9.113033295 4.068021774 90.574333191
10.977212906 11.051617622 90.541816711
10.197843552 -9.697887421 89.171783447
-2.517334461 -15.384522438 89.146781921
6.283283234 -5.286462784 100.123504639
6.598873615 -6.336670399 90.178176880
6.605596066 -6.228307247 90.074432373
8.729516029 -6.877796173 89.687133789
10.752014160 -8.305084229 89.008964539
15.339500427 -15.477738380 90.025657654
16.977588654 -17.936414719 91.287498474
14.314511299 -15.557899475 88.614418030
7.011716366 -4.451402664 99.733337402
-2.604310513 -15.514556885 89.229797363
1.814701557 -8.961264610 85.053352356
8.823122978 -6.724025726 90.246978760
8.691646576 -15.419385910 88.852142334
6.821897507 -8.160789490 89.098373413
6.822917461 -8.157203674 89.081031799
7.255508423 -9.947383881 89.415832520
7.250488281 -9.938566208 89.402984619
7.980538845 -5.245486736 88.929321289
4.396410465 -6.468221188 92.508445740
5.125839710 -6.514758587 90.628471375
9.779578209 -6.290784359 92.844947815
9.780938148 -6.303011894 92.846763611
