ply
format ascii 1.0
element vertex 1278
property float x
property float y
property float z
end_header
-0.101045936 -0.527589500 -0.003971362
3.574712276 0.864775240 -0.166634589
1.055703282 0.074862935 -0.124417074
0.506136179 -0.112860344 -0.218848631
0.144330755 0.166810378 -0.788502812
0.847578526 0.640428126 -0.069282755
-0.842755854 0.293443918 -1.154891253
0.217042953 0.258919746 -0.218375787
0.076981217 0.205099985 -0.322500408
0.310108840 -0.684696913 -2.076154232
0.107310921 -0.109857947 -0.069444336
4.119087696 7.987911224 -1.195794106
4.994428158 9.660414696 -1.466509819
-0.166170046 2.694824696 0.116343603
0.559815466 3.245593548 1.439919949
-1.966929078 2.731264114 -0.444601536
-0.106858812 0.653081059 -0.337198615
0.062557757 0.917278707 -0.278758436
0.014020885 1.133686543 -0.402597189
0.517344534 0.332938045 -0.194756985
0.248134047 0.412017941 -0.068139084
0.732147038 0.132170647 -0.152740106
0.348522961 0.447848976 -0.166344568
0.128878161 -0.137779072 -0.190822974
0.713152945 0.213139266 0.284503251
0.766017795 0.091031671 0.295522243
3.391183376 -1.121242881 0.415929943
1.083540916 -1.342721701 0.012899819
0.165153235 -0.354678214 -0.061340742
1.190321445 0.027305488 0.104753293
0.942718208 0.113484778 0.358879536
0.557435751 -0.229702145 -0.217498019
2.301291227 0.485492051 -0.088351592
-0.224169225 -0.140306413 0.094644703
-0.086642176 -0.598895133 0.095984489
1.224035382 -0.013837874 -0.372833490
-1.129206181 0.946843445 -0.972671688
-0.813360512 -0.228235900 0.936586738
-0.435008198 0.745723248 -1.280617237
-0.426971823 -0.225032464 -0.107425109
-0.036011949 0.073142268 -0.025200967
0.044008754 0.011745374 -0.024874356
-0.152574599 -0.021349905 -0.004899543
-0.224600598 0.051418148 -0.025627004
-0.022371188 0.057961360 -0.024890872
0.093861483 -0.016975611 -0.019807491
0.063061558 0.002903419 -0.023909882
0.084724002 -0.008693474 -0.027975002
-0.787655592 2.371824026 -0.373833895
-0.182385445 2.395722628 -0.706212044
-1.403096914 2.345484257 -0.402086943
-0.443921000 2.282345533 1.637332916
1.431904435 7.029527664 -0.600427687
-0.012555672 0.063309692 -0.025011778
-0.021393478 0.051956110 -0.026142921
-0.144210950 0.890349090 -0.405229419
1.718954682 1.496521592 -0.732162952
0.324186713 0.400367886 -0.052963562
-0.239069074 1.473977566 -0.113170952
0.000945349 -0.093474545 -0.053090580
0.060573321 -0.115970179 -0.065238439
-0.020162884 0.060178567 -0.024471046
-0.030469663 0.071038693 -0.072584622
-0.018567793 0.031791553 0.025977951
-0.036798075 -0.166803509 -0.140268534
-0.046310887 -0.003870083 -0.067258202
0.063879505 -0.119561978 -0.067945413
-0.019222416 -0.103532635 -0.069914468
0.407413900 0.414384514 -0.023238065
0.302501470 -0.891134024 0.085776120
1.546201825 -0.721473157 -0.306614518
0.344533026 -0.190170541 -0.015850417
0.092193022 0.096476376 -0.091164932
4.247430801 0.829557300 0.078173712
-1.199678063 0.726185858 -0.656681359
-2.107175350 1.517149091 -0.829896331
0.109802447 0.045566034 -0.018760100
-0.182458088 -0.293234736 -0.019602817
0.083222106 -0.006120482 -0.018150439
-0.008681623 0.086742461 -0.024996690
0.186982661 0.015292116 -0.041318845
-0.468120188 0.034489345 0.094063699
-0.005160970 0.060639609 -0.023868619
-0.016868170 -0.339686960 0.096484222
-0.019924207 -0.064472027 -0.025354864
-0.144333825 -0.015974620 -0.003477150
-33.812545776 -18.793613434 -17.648050308
-3.805265188 0.724653542 -1.077715516
-2.264209509 1.091129541 -1.695455790
-0.086823158 0.009691004 -0.025541725
-0.022874514 0.056702256 -0.025656151
0.168773532 -0.392546415 0.136718348
0.602063596 0.008161339 -0.080143273
0.074630782 -0.649926186 0.120761186
-0.011624390 -0.083024338 0.064945824
1.797568202 -51.538181305 0.491239697
-0.055676591 -0.034800835 -0.026606344
0.028973689 -0.016099926 -0.067155831
-0.017998004 0.046645366 -0.025143705
0.093237296 0.002136941 -0.083073176
-0.181225628 -0.051065203 0.119236782
0.324391216 -0.109074734 -0.080927283
0.142033324 -0.011380231 -0.068535887
0.168970972 -0.040074233 -0.074586421
0.138393253 0.007985909 -0.071742326
0.162056535 -0.075124159 -0.065951616
0.305060267 -0.275557488 -0.052291479
-0.219666183 -0.082969509 0.016492873
-0.537135899 -0.077650465 -0.074855313
-0.236758411 -0.155110568 0.028257234
-0.095828250 -0.374251485 0.102514893
-0.366557032 0.261308789 0.088783674
0.670411110 0.013109514 -0.088271447
1.068838954 -0.715263188 0.272532821
2.157805681 -2.174951792 0.373763531
-0.011924250 -0.726684690 0.109412819
0.024911849 0.145543948 -0.011507035
0.132452637 -0.602481246 0.009352369
-0.045428194 -1.005160809 0.080963224
0.602567255 0.014373186 -0.074832544
0.035444114 0.000053136 -0.083768710
-0.139445886 -0.356862754 -0.009142133
0.292822540 -0.390371203 -0.000190540
0.347944021 -0.995732427 -0.000290922
1.745135188 -1.804498553 0.400868088
0.030218927 0.001995332 -0.080261782
-0.093116462 -0.687152386 0.000859148
2.511454821 1.488534451 -0.033046603
0.190163970 -0.463325828 -0.133982509
-0.012760314 0.081141606 0.005602556
2.351441860 1.020023704 -0.369028598
0.434706658 -0.703892767 -0.237161919
-0.296369672 1.271891713 0.213526770
-17.060813904 -61.476947784 -20.919794083
0.082861021 -0.132844761 -0.153875276
-0.433410406 1.688400626 -0.594217181
-0.862485409 -2.247270823 -0.282109350
0.129817232 0.023009283 -0.070567027
0.175597936 -0.749292076 0.041752029
-0.249668136 -0.266333073 0.049465708
0.009149040 0.041418903 -0.127958715
0.253936648 0.576313078 -0.147049442
0.552711308 -0.274628878 -0.062871307
-0.118037850 0.343585879 -0.082141586
1.825142980 -0.610830665 0.045513541
1.400148273 0.417699665 -0.199740529
0.791475952 -0.266329139 -0.070437692
0.006988876 0.592890501 -0.369147390
-2.560064793 3.022514105 1.237198710
-1.723442078 1.029542208 -0.553823292
0.084429383 -0.028796690 -0.083297193
0.040851414 0.002746498 -0.083332710
1.108851194 1.050176501 -0.488418639
0.035524484 -0.000768456 -0.082267106
0.390471190 0.502355337 -0.077605210
0.289533973 0.339268744 -0.207657695
0.288281590 0.325013310 -0.203614965
-0.246025652 0.360872775 0.136837721
-0.024267387 0.229253292 -0.731206834
0.276695788 0.573560953 -0.368093044
-0.219326228 0.491790295 0.487595379
0.033418633 0.186687559 -0.962853014
-0.315107316 -0.419708192 -0.382199317
0.131915659 0.410817116 -0.126186296
-0.117425077 0.368155986 -0.086315103
0.297071189 0.394597679 -0.125251919
1.406858921 1.752571344 -0.464464366
0.089459181 0.100648381 -0.089179590
0.093146503 0.004206143 -0.082511105
0.090015918 -0.026494207 -0.082175195
0.051628366 0.936886311 -0.392594755
0.072813332 0.013304991 -0.082863122
0.344812840 0.065618470 0.290393889
0.092404589 0.003561284 -0.081968181
1.872562528 0.915452302 -0.167967245
0.772064209 -0.113662548 -0.100528665
1.232822657 0.569642484 0.365592122
0.122585088 -0.134762898 -0.081176735
0.648509443 -0.814788580 0.074093923
0.408032179 -0.490546405 0.029852299
3.809562922 -1.032409906 -0.121807560
0.554291844 -0.046760820 -0.067352161
-0.019520098 0.533482075 -0.105611652
0.312549204 0.296478778 -0.207169309
0.054512687 0.417594612 -0.097171061
1.623025775 0.570435703 -1.830775142
0.342370152 -0.206548586 -0.047950968
0.095509768 -0.134609506 -0.172061309
0.090394519 -0.096946158 -0.082993507
0.059857145 -0.072873190 -0.084859714
0.028028822 -0.021327067 -0.089638636
0.157936186 -0.093148090 -0.212797567
0.074351899 -0.074078552 -0.070868723
0.277068496 0.237860918 -0.211058334
0.284004986 0.246124387 -0.216430575
0.285118699 1.937579393 -0.119611725
0.148211285 2.998518944 0.524308026
-41.993656158 38.818870544 -19.420852661
-0.013062894 1.281297684 -0.085739240
0.302230179 0.274730504 -0.156956673
-0.547316074 3.077878714 2.301558971
-0.171124950 0.403875172 -0.878412485
-1.828691244 2.013012648 -1.020400763
0.639357746 -0.045565486 -0.206849530
-0.141903356 0.065623537 -0.031563222
2.003380060 -1.058247566 -0.470134109
0.783685625 0.005489246 -0.096980266
2.308609724 1.142716646 0.333430916
-0.040868767 -0.169742122 -0.188906699
0.340073198 1.455004930 -0.009627454
-4.368308544 -1.307922006 1.506028652
0.257803231 1.417784452 0.111789845
-0.497511446 3.073058128 -0.165880948
-0.247085080 2.501248837 -0.394349366
-2.435468674 2.406119347 1.664757133
0.088365726 -0.144119874 -0.196851954
0.583721101 -0.047468845 -0.191712499
24.255302429 -35.523250580 3.007375240
-2.953097343 2.222480297 -0.913796723
-5.612049580 0.678456783 1.799307466
-2.027622461 3.354875326 -0.174077317
0.092243448 1.648253322 -0.602125764
-4.714330673 4.177652836 0.754706383
0.018599661 1.746386886 -1.884055018
-0.027363755 -0.412625730 -0.416992188
0.031913951 -0.216984913 -0.102734141
0.114360966 0.058685955 -0.290741205
0.094072394 0.334795088 -0.468309522
0.046018876 -0.080511130 -0.051961351
0.234536380 0.356096864 -0.162201390
-0.012798327 0.081127927 -0.096271574
3.900928020 -8.682695389 -24.405532837
-0.005423820 0.523896635 -0.540620863
0.081259750 0.387982339 -0.009901308
0.003378947 0.279420406 -0.288055390
1.312558651 -1.224120617 0.281889737
0.124895476 -0.281957358 -0.047165874
0.563747168 -0.134071410 -0.204619080
0.404763043 -0.343096673 -0.074155025
0.085037768 -0.157008529 0.001166495
1.856001019 -1.914895415 0.436330587
1.959419012 0.971620739 0.194238409
0.772223055 0.066244893 0.289809972
0.539796352 0.301521063 -0.164769650
0.877315044 -0.934118271 0.208616823
0.153695181 -0.340392888 -0.054780923
0.107737392 -0.174141005 -0.091056541
0.523844123 0.161160871 0.220365554
0.880187511 0.263487041 0.352248371
0.092667893 -0.148539886 -0.120642185
0.586474478 -0.275739729 0.346847862
-0.009633931 0.083253540 -0.034970105
-0.035621397 0.073521718 -0.025913119
-0.007533413 0.087183625 -0.025737258
-0.032052021 0.072824180 -0.035061676
-0.023061518 0.058676455 -0.024732672
2.104449749 0.238715157 0.032354970
1.100737453 0.535000443 0.276873529
1.805637717 -0.569172382 -0.751479983
0.007446765 -0.047533710 -0.239193290
0.011910693 0.452947557 -0.075739905
1.143556714 0.727869749 0.170205265
0.212966993 -0.207316369 0.003636972
0.165520355 -0.281055272 -0.156817362
0.087870196 0.003578947 -0.080447324
0.250504673 -0.022155967 0.295558274
0.081091352 0.278308898 -0.110565364
0.082915671 0.281756371 -0.278709680
0.116637975 -0.057775326 -0.067743868
0.477965832 0.481948107 -0.434519053
-0.055591118 0.279120952 -0.114175789
1.769809604 -0.570640028 0.172000989
3.718152523 1.240328193 -0.339793026
0.576670825 -0.057192687 -0.195818186
0.722481012 0.147633895 0.301987171
0.585529566 0.000711099 -0.197199360
-0.006007205 0.077520549 -0.012847697
-0.012719214 0.085746616 -0.050043166
1.588709831 0.143423676 -0.025544744
0.476071566 0.264874816 -0.189142957
0.247693315 0.494152725 -0.037329003
2.208456278 1.744997859 -0.893105567
2.726649046 0.493961573 0.351192296
4.580011845 1.438019872 0.000129170
0.419682860 0.661393046 0.009895443
0.281028986 0.323782712 -0.173305139
1.399366021 0.279036462 0.321813703
0.196457699 0.477195829 -0.066665031
0.236888364 -0.356429547 -0.081693359
0.402871221 -0.530215561 -0.085366219
1.248463631 0.576678038 -0.195783332
0.632697880 0.463270158 0.319537938
0.014201597 -0.039484981 0.115824997
0.105688609 -0.075032189 0.105386086
-0.206475183 -0.151064679 0.028176239
0.176574096 0.362488657 -0.639399767
-0.311068237 0.323317111 0.139085844
-0.025800612 0.705000699 -0.292959183
-0.124634273 2.174337626 1.394722581
-2.797629833 3.216652393 1.347055793
0.043567594 0.060396336 -0.041424356
0.047685195 0.039989512 -0.030723233
-0.085429952 0.009427522 -0.045914073
0.071540475 -0.057521395 -0.022768432
-0.017583638 0.047743302 -0.024373949
0.150570020 -0.008071844 -0.106468230
0.271912247 0.030828515 -0.165470675
0.204664141 2.023624659 0.340200454
-2.166727781 19.309982300 -0.144700468
1.890911460 1.373842001 0.040345233
1.379998803 -0.397004753 -0.043842215
-1.229878426 12.851594925 1.012375593
0.694940031 3.987264156 0.475213885
1.076683402 -0.718430161 0.305858880
-0.062229805 -0.676673472 0.069057375
7.033531666 -26.285627365 -3.161377430
-0.829525530 -0.285138398 -0.049884878
0.149611890 0.035223708 -0.291860551
-7.303493023 41.488857269 9.703623772
2.111216068 0.592129827 0.051106121
-57.707195282 44.826042175 -84.756134033
0.007865340 0.353951752 0.130242974
0.001191585 0.583609641 -0.096633315
0.448149264 1.486715555 -0.167995840
0.002458151 0.097419396 -0.004744017
-0.022916568 0.086270772 -0.040355485
-0.034138571 0.101623461 -0.007753912
-0.266697437 -0.024283960 0.108126141
-0.028890669 0.084273256 -0.010819311
-0.006310252 0.073032752 -0.015524044
-0.010902213 0.063232981 -0.025024218
-0.044375718 -0.127428830 -0.019980455
-0.011543912 0.320613950 -1.312953591
0.323774427 1.830311656 -0.526297688
0.114567578 2.235810518 -1.312009811
0.126741275 -0.167664975 -0.174554065
-1.357668400 0.965123355 -0.662642002
-1.014877677 0.113851391 -0.456653327
-0.865639985 0.516794145 -0.927468002
-1.180784702 1.125135541 -1.342575669
-0.801407278 0.654883325 -0.948324978
-0.953569591 1.254682899 -0.716677845
-1.177880406 1.139420390 -0.851344883
0.103260808 1.080981374 -1.627951503
-1.162287593 0.938856184 -0.421095639
-0.042391606 0.103626199 -0.010863355
-0.003145593 0.098104648 -0.004830116
-1.802171230 -0.554988086 -2.112662792
-0.047482707 -0.123859599 -0.067014657
-0.106649905 -0.554712117 0.111429296
0.027918007 0.027616678 0.018651510
1.342505455 -0.361212373 1.399892569
12.149607658 0.931620955 -0.711833179
0.216637194 0.606490791 -0.811764121
0.450698555 0.191339701 -0.984545469
0.218466848 1.930095792 -1.005421519
0.225948051 0.596443355 -0.485357344
0.196874589 0.186781645 -1.196245909
0.255693346 0.292971164 -0.250529140
0.104460932 -0.156289816 -0.189661711
0.552490234 2.562241793 -0.534059584
10.968933105 8.251329422 -4.236104965
0.053467646 0.250574231 -0.421143204
0.084294342 0.092565529 -0.085356325
0.312732548 0.397534013 -0.116302185
0.081153609 0.060352515 -0.193402663
0.169933841 0.330203712 -0.562894046
1.634949803 -0.370776445 0.097442925
0.001280892 -0.339751214 -0.050637975
0.296088845 -0.272653610 -0.093289390
0.149053499 -0.437527120 -0.118813872
1.395940423 0.170281261 0.197398677
0.149289906 0.490877926 0.010811977
2.059914827 0.260572612 0.035072096
0.089456104 0.097875088 -0.087707415
-0.012556494 0.464595199 -0.194333985
0.284875304 1.679549932 0.042715624
0.904074550 -0.612261593 0.255519956
-0.049636949 -0.002715090 -0.060934160
0.264824808 0.233154014 -1.290856361
0.683642209 0.115623981 -0.232821316
0.042698964 -0.055861410 -0.072401710
0.177942887 -0.377854347 -0.051423181
0.072350189 0.013671329 -0.087314948
0.088444948 0.003887642 -0.081065945
1.312545061 -0.796111405 0.381256223
0.360081345 -0.201960623 0.030046141
0.384675026 -0.173036501 -0.046365160
1.946482658 0.859291494 0.276687264
1.647492051 0.212873071 -0.215513617
1.545052052 0.869717836 -0.168322101
0.242463171 1.016789436 -0.557055712
4.220579147 1.286439896 0.108766034
0.625915587 -0.045805722 -0.179862976
1.356878519 0.442604542 0.323004097
0.096618384 -0.027612016 -0.088044696
5.201228142 1.722263813 -0.765970409
0.461435974 -0.350718081 -0.078783445
1.272265792 0.028415496 0.121751443
0.584858179 -0.048247870 -0.191693619
0.327385843 0.446325928 -0.128065422
0.411520988 0.522925317 -0.132350892
0.261761934 -0.390687466 -0.089269042
0.583024502 -0.277047962 -0.072683603
1.312741280 2.510761738 -0.016622094
0.077759109 0.349842429 -0.049971621
0.287403464 0.265887707 -0.101437494
0.218385771 0.253212601 -0.223274559
0.211992532 -0.458155334 0.001431256
0.665683091 -0.217505381 0.336126357
0.695528090 -0.095751882 -0.083942279
0.444592476 -1.360947371 0.117088206
1.707980394 -0.566684902 0.030641865
0.155874357 -0.440285683 -0.170316219
0.009292707 -1.361298203 0.113710575
0.087675527 -0.037506312 -0.123144232
0.096491314 -0.166479588 -0.086164199
0.094027251 -0.130908504 -0.078443870
0.486086428 -0.518408775 -0.104821995
0.597027361 0.008654344 -0.080340415
2.495125771 0.608454585 0.335583925
0.494030863 -0.376121938 -0.084996283
0.096952356 0.403499842 -0.054206144
-0.130816638 0.680126011 -0.353459418
-0.994394183 0.691484928 -0.433012843
-0.093363702 -0.264643967 -0.001673878
0.049701415 -0.467305601 0.204589397
0.563331068 0.394290566 -0.063139834
-0.005370893 0.011892511 -0.025449742
-0.012274145 -0.884164929 0.073766939
2.395014763 -2.583308697 0.341841340
-0.160023332 -0.429185957 0.050202530
0.068362541 -0.585007846 0.109779373
0.111841217 -0.068633445 -0.002759098
0.734517932 -0.194810495 -0.075309418
0.056874424 -0.079433739 0.101385929
1.051365495 8.597792625 -4.581550598
-0.100896791 0.390989393 -0.160690188
1.219443202 -0.818398893 0.334069133
-0.045132816 -0.002486034 -0.065891549
-0.085933067 0.036371846 -0.017551461
0.452398896 -0.337984949 -0.073954456
-0.006181388 0.051846232 -0.024873585
0.056665797 -0.638177216 0.265425950
0.116598889 0.472376734 -0.069016948
-0.060177810 -0.532667398 -0.024139743
0.113055810 0.260207534 -0.611350477
0.086503960 -0.141643375 -0.106835321
0.089132123 -0.144921169 -0.193824962
0.070596099 0.255513012 -0.244094715
-0.003685206 -0.448693991 0.125227898
16.966180801 -29.942438126 1.278803945
1.225183487 -0.380792409 -0.016151991
0.697095215 -2.073745728 0.231923401
0.508746564 -0.731037617 0.290064543
4.858735085 -3.858420372 1.200700045
3.681314707 1.648548365 0.090145506
1.793917179 0.211089402 0.307429343
2.118341684 0.525753856 -0.180269018
0.560541630 0.010706567 -0.222229153
1.389979005 0.606164515 -0.139702767
0.293001384 0.448173165 -0.071970709
0.804959297 0.500850320 0.019768583
0.526468754 -0.666500151 0.001271940
0.586648464 0.319915533 -0.232000455
0.723952711 0.399492085 0.143015712
1.184093833 0.669097424 0.236198515
0.084289879 -0.138677910 -0.187284574
0.903580487 0.375448585 0.472030967
0.061023008 -0.316792011 -0.142392948
0.534027040 -0.011976120 0.209872648
1.804852366 0.430093110 0.143267959
4.138250351 -7.240680218 0.262275934
0.096599899 0.099527627 -0.093204916
-0.013292545 0.053049725 -0.081497081
0.202719927 -0.908822656 0.054959163
-0.191416740 -0.213919505 0.052738190
0.169999897 -0.909428954 0.126618430
1.937887788 -1.495608926 0.275021881
-0.184550017 -0.329020679 0.044166725
0.076182202 -0.425093204 0.026818275
0.068104491 -0.738723695 0.309858710
0.010841320 -0.290537566 0.143227741
0.007026078 0.076959953 0.017802915
0.464937449 -0.815573812 0.083185054
1.368056178 -2.425357819 0.268357128
2.347503424 -1.798235059 0.016846964
0.603547513 -0.382573068 0.162074253
0.618662536 -0.038919609 -0.076034084
0.638210297 -0.039324310 -0.074334085
0.037182298 1.311272025 0.204844981
-0.245834276 0.280199498 0.005527788
0.210682854 0.190081209 0.412904888
0.094592854 0.023623897 -0.092681311
0.908768058 0.248115003 0.392840862
-1.570558548 6.283271313 0.650127232
2.148116350 1.082730889 0.223112985
0.419852287 -0.144348308 -0.224720374
0.101511344 -0.113493428 -0.121477261
0.651918054 2.961970806 -1.077551007
0.903673470 -0.063813247 -0.116427429
2.038168430 0.435966432 0.404040754
1.756374240 4.608801365 1.917196512
-0.175311342 -0.081010528 -0.466960698
0.507821798 -0.186621606 -0.024382323
-0.183383107 -0.133927122 -0.404690534
0.163422838 1.927242756 0.234714180
0.079512373 0.004632322 -0.192334592
-0.954745293 0.815116823 -0.393583804
-0.912814736 0.306296140 -0.431815147
0.774566889 3.035231829 -0.029553302
-2.393575907 0.935555875 1.276854634
-0.727049351 1.909956694 -0.642138124
-1.976994634 -0.852804959 -1.030864716
-0.139663532 0.740554869 -0.381042480
-0.185883269 0.320882678 0.384858012
-1.019715548 0.731191158 -0.572295427
-0.066688709 1.432632685 0.279103130
-1.427704215 3.708911896 -0.712922692
-0.391461879 2.283180237 -0.098966494
0.859739542 -0.075209334 0.323158085
-36.501045227 48.466388702 -80.611961365
0.094335675 0.005054369 -0.084862322
3.465131521 -1.069676518 -9.495153427
0.029093113 0.441084325 -0.075045064
30.140102386 -38.061111450 -36.889022827
1.819833040 1.328855991 0.033092588
-0.165759221 0.206835464 -0.054370303
0.533363044 -0.416320503 -0.033379801
0.601429164 -0.097499840 -0.078339368
0.401104778 0.524356604 -0.050136860
1.623890281 0.185431242 0.277457982
1.535349011 4.279691696 -7.029146671
0.179408610 -0.125140801 -0.083714671
1.445654154 -1.187915564 0.370081842
0.595257819 -0.305503964 -0.078235015
-4.401380062 1.724255681 0.184628814
-1.531138539 -0.888937652 -0.137361422
0.578596711 -0.066168211 -0.218835369
0.098986179 -0.134933129 -0.087552339
0.245188221 -0.187153801 -0.191642314
0.119314052 -0.084662542 -0.068287455
0.026782658 -0.058178630 0.024463553
0.125343934 -0.152716905 -0.128729239
0.091527045 -0.165135622 -0.090044789
0.490364492 0.399469018 -0.221992120
0.083441205 0.022123810 -0.112053096
1.343348861 0.694332957 -0.022730293
1.130718589 0.340261847 0.497587025
-0.111877643 0.309181124 -0.080400966
0.084837586 -0.101923347 -0.089855164
1.944927216 1.118744612 -0.365758419
-0.003629187 0.051137634 -0.085607558
1.206977010 3.189450502 -5.144590855
1.221379638 0.694981396 0.242227569
0.036335889 -0.070088819 0.048655361
0.122915305 -0.133893818 -0.082242668
0.014336923 -0.121213339 -0.141226679
0.140438467 -0.146954954 -0.162512079
1.019661784 2.455055714 -1.880510449
2.510585308 0.472131461 0.041993011
1.320177078 0.643095672 -1.010008693
0.189940289 0.114971086 -0.225327998
0.968222678 1.109776497 -0.534574270
0.244999453 -0.195557192 -0.121615827
0.233401641 -0.232259706 -0.073985644
0.098832339 -0.127242118 -0.191995755
1.261786103 1.158154964 -3.171778917
0.007435220 0.195143417 -0.203477308
0.451095253 1.203023195 0.360957295
1.613644719 3.113095284 1.129027486
0.236236125 -0.062915973 -0.213140309
0.089638680 0.096344925 -0.086345010
0.055521723 0.009234013 -0.085845791
0.122878596 -0.084245749 -0.060764454
0.006241074 0.057526447 -0.130974144
1.794340253 0.350433052 -0.812674999
2.814985752 -0.321656018 1.420550227
2.208182335 0.909017682 -0.862005472
0.686291516 -0.338217825 -0.090845607
0.100697644 -0.089760281 -0.060354676
0.094245538 -0.128442168 -0.073559083
0.030528734 -0.111561894 -0.322891653
0.280023217 0.433171302 -0.068474889
0.108056873 0.589952886 0.408182174
-32.154720306 4.275402546 -47.006576538
-52.337337494 12.928301811 -80.874969482
3.922837496 50.485031128 -0.261399060
0.781318367 -0.148490772 -0.125337198
3.159997463 0.939788461 0.059512142
1.106661439 -1.155289769 0.085952736
-1.380189061 0.433709621 -2.663451195
0.150288969 0.070227236 -0.041045424
0.054855816 0.444015414 0.089622751
-64.088813782 13.844539642 -98.991027832
-0.477655947 0.054359194 -1.044281244
-3.380778313 5.027220249 -4.152138233
-0.603732944 0.310882926 -2.780696630
1.238740683 0.702630460 0.329710782
0.016645689 1.723920584 0.233045727
0.169436291 0.731666744 -0.767908335
0.078638755 -0.084483154 -0.114524253
3.129183292 1.252547264 -0.246289298
0.493969798 4.746764183 0.057751741
1.922740102 0.484825790 -0.282167047
1.770784497 0.508559048 -2.074372768
0.116111167 -0.059363011 -0.178687140
0.075052910 0.030033089 -0.239122123
0.618724942 0.224176824 -1.436283708
0.124639072 -0.136390746 -0.083514504
0.029904565 0.510848284 -0.149423704
0.291563392 0.373006314 -0.120380558
0.177759975 1.432397485 -0.957537830
0.231961519 1.193120718 -0.680979371
0.038052309 -0.000373681 -0.083389841
0.302085906 -0.453472972 -0.034195531
0.113947198 0.362893850 -0.117494620
0.131049559 0.401620835 -0.213512719
0.114458345 0.360522002 -0.116133794
0.670602858 -0.263437241 -0.068013780
-7.057857990 40.350803375 1.024199724
1.395673633 0.092026062 0.172051996
0.887937546 -0.211119860 -0.131202668
0.639366508 -0.250070184 -0.060769223
3.304042816 1.438729405 -0.023817113
2.835946321 -1.745370030 0.824303508
0.090289831 -0.024927225 -0.083663017
1.231199980 0.575365961 0.309945315
0.635511041 0.603785813 -0.038273264
1.091940999 -0.742423356 0.308559656
-0.085353851 -0.253894150 -0.022285378
0.111645192 -0.064301647 -0.080812849
0.714982748 -0.450433761 0.205194756
0.477254242 -0.470850825 -0.007459599
1.334172010 -1.113704562 0.338565767
0.871595860 -0.136720777 0.316160202
0.741589308 0.221984580 0.290724009
-0.075288884 -0.067983024 -0.348272651
0.088896871 0.423737109 -0.445032209
0.489968777 0.091601379 0.326867729
1.276092649 2.694585085 -6.766614437
0.051995397 -0.040312167 -0.083286069
0.050100427 0.004941808 -0.084817380
0.104204454 -0.098170482 -0.061489057
0.101176210 -0.137938321 -0.078095019
0.109516412 -0.117703751 -0.159160122
-0.006634428 0.049316093 -0.084021129
0.111934997 -0.102359921 -0.064087473
0.088027708 -0.096231043 -0.081257194
0.110161036 -0.102423899 -0.063482724
0.615861475 -0.310650408 -0.080814831
0.727132499 -0.317942590 0.233641863
1.196185112 0.600325644 0.020132471
1.077500224 -0.049139895 0.103785470
0.076742761 -0.046320327 -0.084018163
2.630774498 0.885922432 -0.511114836
0.412631094 -0.393418223 0.316465795
0.079786383 0.017394295 -0.087505810
0.522228539 -0.305627316 0.325831622
0.472825736 -0.030442575 -0.067914933
1.372017980 -1.077909231 0.360877097
0.106510252 -0.062471803 -0.080919348
0.084518723 -0.094214775 -0.078173183
0.120566644 0.493112296 -0.071754277
-1.771997929 2.552635431 -0.699510753
-7.355376244 -2.011737585 1.285118937
-0.036407333 0.073947646 -0.024766956
-0.029504554 0.055697471 -0.019565150
-0.024488984 0.053886216 -0.045447219
0.011511348 0.105755597 -0.033118453
0.135278136 0.171589896 -0.055261306
0.094730683 0.131817654 -0.593846858
0.060897175 0.143245921 -0.190233499
0.097886696 0.140357524 -0.594225824
0.179246858 0.260104448 -0.026621524
0.129898399 -0.785693109 0.010333731
-0.055222426 -0.031128597 -0.025804771
0.002112700 -0.093037300 -0.061833646
0.106252536 -0.057826269 -0.061321091
0.619562328 -0.569702148 0.054934960
0.951367795 0.120273873 -0.122215964
1.003007054 -0.945559025 0.218637079
0.117794871 0.470748365 -0.610560298
0.132363766 0.205125391 -0.642183423
0.450591803 0.710402250 0.011217976
0.043945711 -0.033589926 -0.078040496
0.436914951 -2.480520964 0.023396490
0.025199508 -0.171584040 -0.028543036
0.074067920 -0.115143761 -0.065280497
0.039811481 -0.031058211 -0.074627146
0.125743657 0.062220804 -0.312998801
0.084459305 -0.137826890 -0.190552622
0.875899673 -0.075033806 0.328700989
2.154960155 0.265406907 0.377273470
1.842983961 0.214522541 0.134593129
-0.953577101 -0.103833027 -0.286030740
4.928515434 1.239695787 0.054198388
-3.276846886 0.717142522 -0.943107009
-2.366544962 1.262853026 -0.741154671
-1.415814042 -0.713115513 -0.903289795
-3.597600460 1.548328876 -2.672019720
0.489369929 0.290080279 -0.228558123
1.989951849 -0.264175057 -0.085967489
0.615439177 -0.267782062 -0.031482521
0.001905340 0.037460357 -0.025696570
-0.012533935 0.083837211 -0.030468358
-0.031943556 0.073002271 -0.033294786
17.762443542 -21.199420929 -7.779300213
-0.015721511 0.086706109 -0.017897340
-0.781366169 1.041402936 0.246034980
-0.351844192 0.155960202 -0.666608989
-0.635481834 0.972278416 0.174650401
0.560478747 0.122027181 -0.041519079
-0.205069333 1.895919442 -0.015394986
0.187800691 0.092212543 -0.152921289
1.739411473 1.022308946 -1.352749228
-0.024929736 -0.083220527 -0.304193705
0.180705801 0.492260426 -0.053611923
0.083404608 -0.076870032 -0.080368526
-0.003024888 0.048000276 -0.091781899
-1.551024318 -0.842697144 -0.158836573
-1.349105835 0.968908787 -0.663616002
1.077651739 -0.805100203 -0.249805674
-1.276203513 0.549824357 -0.465465397
0.077703282 -0.084404588 -0.082074121
0.265780330 -0.194584206 -0.088389285
0.046780445 0.003531698 -0.084979728
0.077940032 0.018334797 -0.086064026
0.310855389 1.201380730 -0.852571547
-0.046700463 0.000266930 -0.064323500
-0.047256030 0.027155703 -0.059873998
0.085705176 -0.094838142 -0.079807937
-0.005498703 0.059022773 -0.024370624
0.556451499 -0.258490145 0.330963880
0.105673358 -0.506101608 0.007022111
0.676370740 -0.447227508 0.187108636
0.166998342 0.054897390 -0.179595217
0.374189079 -0.256468624 -0.126977712
0.031813871 0.545152664 -0.087305464
0.505945086 0.984609962 0.453611940
0.076216526 -0.192416310 -0.003041601
0.370044291 0.007370124 0.134618297
2.681815624 0.771786213 0.746227801
0.522455215 3.985327482 -3.466054678
0.373883396 0.529435575 0.011089448
-0.025741501 0.025730077 -0.008274763
-0.034196392 0.049318764 0.001935836
0.194343522 0.208069399 -0.078298151
0.014862380 0.126597852 -0.072111182
0.001647751 0.116562717 -0.056819078
0.016729111 0.167964220 -0.108405747
0.062057916 0.064789496 -0.059303131
-0.012130044 0.091854617 -0.051773217
-0.018287659 0.093684494 -0.106292278
0.686783433 -0.151895031 0.233383894
0.812854648 -0.137994051 0.298414350
2.222894669 0.545299411 0.279819578
0.869890928 -0.079377793 0.324600428
0.388577402 -0.343105525 -0.059096336
-0.004249086 0.058207359 -0.025639087
-0.042146429 -0.024852179 -0.060691569
0.796835363 -0.321243286 -0.029230483
-0.057247493 0.006645566 -0.061571311
0.460973203 -0.163484395 -0.022187293
0.268187851 -0.067646697 -0.010181462
0.011051529 -0.124235168 -0.073520698
-0.038275719 -0.015456092 -0.059131555
-0.078758538 -0.106854714 -0.150449470
0.865633905 -0.800594926 -0.010133824
0.081479304 -0.581087708 -0.075792231
1.551460266 0.879459083 -0.169147104
1.480270147 -1.161052108 0.207984969
0.788223982 -0.672429681 0.113913625
2.715645075 0.328733146 0.159428120
0.719924331 0.362614512 -0.115964524
0.584733546 0.355210811 -0.172083139
0.906010509 -0.068231769 0.339927047
2.839881897 0.633676589 0.255463034
0.531402171 -0.477525860 -0.004685774
2.966160536 -2.492482662 0.351295650
0.050303016 -0.283461303 -0.141962677
1.054831028 2.483577490 1.083251119
-0.170288265 1.170568943 0.859987974
-0.220354453 -1.460588574 -0.063040003
-0.681486785 0.241593599 0.718077600
1.666905642 -10.589414597 0.791656494
-0.084039494 1.914086938 -1.111528158
0.368658483 2.027132750 -0.855274439
0.066602506 1.780372024 -1.133858919
0.616918445 -0.219551742 -0.186883971
0.494274378 -0.373902887 -0.084087059
-3.076733112 1.563130617 1.210228801
-5.748249531 5.462694645 0.746089995
0.342861772 -0.152082428 -0.075094879
0.043880641 -0.028839407 -0.082450323
-0.097419351 -1.542769074 0.009351610
0.072856359 -0.130105153 -0.051720999
0.120243989 -0.153829709 -0.239243418
1.284893394 0.583571553 -0.189765558
2.437474966 0.899274766 -0.838126540
0.585487187 1.856295109 -0.105279565
0.134839252 0.124651119 -0.148528710
0.507092357 -0.177617997 -1.133205295
0.129189074 -0.139044702 -0.090038918
0.053515058 -0.039825127 -0.079474673
0.737477601 -0.311300039 0.239661470
0.272154361 0.089623436 0.187887371
1.609867692 -0.510033429 -0.069849275
0.171644956 0.510932505 0.029185344
0.277710408 0.480818063 -0.146751598
0.612214506 -0.291676342 -0.072758779
0.344559193 0.636256337 0.009305032
0.190514192 0.294289976 -0.029898509
0.212048292 -0.332312196 -0.028925873
1.367771626 0.774043322 -0.207180604
0.902340114 -0.220990241 0.288628757
0.756243765 -0.189624190 -0.111887023
0.431821495 0.211614147 0.285079032
0.252193838 -0.175305337 -0.074296698
2.050696850 -0.278788358 -0.088875994
0.640943229 -0.249342576 -0.079191521
1.587397218 0.950928748 0.326309949
3.746107340 1.156004906 0.050068669
0.261658102 0.279804587 -0.157344773
0.232230902 -0.474206388 -0.063367061
-0.190586865 1.866505623 1.198744535
-0.181236759 1.126056790 -0.413653433
0.955483496 3.482573032 0.194481984
0.290171623 0.275560737 -0.149110690
0.076503411 0.013793983 -0.084934622
0.635752618 0.003496643 -0.215699419
0.448093712 -0.218262434 0.266058832
0.282801926 0.365969896 -0.135340273
0.479643226 -0.557467818 -0.174337566
1.219683290 0.563772440 -0.113539919
1.899707913 0.439467460 0.175890908
0.882905006 -0.219477832 0.326895952
1.142005324 0.129140317 -0.221270576
0.070394002 0.014874618 -0.081781246
1.489816308 -0.447330564 -0.031015649
0.093551673 -0.099465154 -0.067412049
0.002307885 -0.389440805 -0.038539674
0.086177535 -0.100700900 0.018873330
3.106448174 1.628206253 -0.315295696
-0.263471305 2.328485012 -0.013423386
0.077652678 -0.005018215 -0.192928672
-2.390937567 4.648317337 0.334989756
0.670233011 -0.027759504 -0.055999514
0.105057202 -0.061378267 -0.146764785
0.141005620 0.792004704 -0.406543136
-7.738420963 45.472072601 -4.974599361
-0.319260091 6.678885460 3.035128593
7.603608131 53.835102081 3.199538469
-0.740102053 0.825947583 0.128958970
1.046924472 1.916036487 -0.400085241
0.681808650 0.124583170 -0.130575523
6.682991028 -15.886360168 2.885864019
0.467836291 -0.457987130 -0.008656934
0.584707677 -0.274756759 -0.075343303
0.129821926 -0.292247891 0.009664903
0.176060796 0.541880131 -0.306488127
0.004878195 0.592546880 -0.374999017
3.204285622 39.956848145 18.600027084
-0.108880885 0.573993921 -0.321553409
-0.199272543 0.482678592 -0.814572752
41.813148499 30.041065216 -16.486871719
0.062226381 1.245539665 -0.398384005
-0.000247026 0.589914680 -0.379742295
0.199630544 0.547963202 -0.381177902
0.182531834 -0.125065327 -0.084669895
-1.382324815 0.675019205 -0.422401220
-3.106796265 0.589192986 -0.843637586
0.730447352 2.872417212 -3.366103888
1.390672445 0.217159167 -0.169698209
-0.125259519 -0.086301997 -0.251427829
-0.506027937 0.117597900 -0.909991205
-0.574604034 -0.066888496 -0.304910630
0.151342094 1.639135242 -0.419769228
0.079669073 -0.000606172 -0.185053974
0.541262388 0.985356033 -3.985563040
-0.757246375 0.467402846 -3.521421671
0.101171635 0.046275277 -0.202701926
-13.881310463 19.082469940 -2.895472527
0.193221614 0.134608388 -0.236690685
-38.934707642 36.069366455 -18.040645599
0.043263383 -0.037434898 -0.073617674
3.759487152 1.752379894 0.125743672
-1.910013080 2.619920015 -0.674856007
-1.486912847 2.475591183 -0.483069807
-2.622115374 -1.409714699 -0.993994355
-0.753056467 2.516500711 -0.169602677
-0.305172026 1.611275434 -0.431765437
0.122991525 -0.086497575 -0.061730586
0.377293169 -0.200288311 0.030104507
0.094807386 -0.129113331 -0.074878417
2.178315878 0.320596009 0.046055697
0.086819269 -0.078161664 -0.057740267
-0.122154325 0.290868312 -0.054683607
0.081606194 -0.115441248 -0.077311710
0.787361741 -0.151124239 -0.119814053
0.729422688 0.735651016 -0.033759575
0.910903573 -0.047951013 -0.099401891
0.142553285 0.585983992 -0.076199457
0.253548324 0.325244367 -0.215105742
-0.609744132 0.342858821 -0.285397142
-0.283544779 -0.039246794 -0.091460340
0.632136285 1.659317493 -0.430926114
0.009493047 0.047898911 -0.210159302
-0.059425294 0.828758061 -0.005078421
-0.078964360 0.108114868 -0.056175139
0.039011307 -0.000207851 -0.084579378
0.644502223 0.030071370 -0.089190148
0.547229052 1.487498641 0.398834586
-0.042868059 3.120561838 0.310598522
0.728853166 0.003217069 0.404625237
0.012993159 0.015146433 -0.170296535
13.557859421 92.947067261 0.506595314
0.876065612 -0.734237075 0.077911422
-0.125007123 -0.008120473 -0.027756959
0.107889764 -0.133468553 -0.079722993
0.072830416 -0.140417218 -0.270494759
0.123843089 -0.125585794 -0.093392506
0.336374462 -0.171379477 -0.164276525
0.259373635 0.527324259 0.019350639
-0.167689368 0.157402232 -0.100263737
0.318870515 -0.173530757 -0.191704303
0.007395823 0.623560071 -0.226972401
0.133752406 0.780382752 0.012393041
0.565623164 1.015234232 0.376717448
0.577252209 0.644793093 0.343284100
2.322329760 0.622783601 0.663903236
1.003596783 -0.617783904 0.294229418
0.199013188 0.513372362 -0.070506051
0.546110451 0.828775227 0.339288086
-0.025836332 0.652159095 -0.122417852
0.271518379 0.467695355 -0.207715243
2.206728220 0.131560251 -0.074086122
0.675279617 0.024515409 -0.086284615
1.839881659 0.065858930 -0.028209373
-1.873829722 1.077691913 1.075542688
-0.082974352 1.314513922 -0.422107100
0.054595221 1.618335485 -0.732580721
-0.156381816 -0.699199378 -0.274923980
-0.270137191 -0.127364174 1.711222053
-0.501099586 -1.241536260 -0.312198967
-1.085199356 0.304987282 -0.883061826
0.093593754 0.002358452 -0.082766958
-0.110153995 0.181838632 -0.010152511
2.048100233 -1.317577481 0.266265452
1.974816322 -0.854830682 0.054178655
0.042310040 0.535210013 -0.087613598
0.838782251 -0.062717408 0.315258622
0.592027545 0.661922812 0.299098551
-0.268609971 0.476095527 -0.014551490
1.188822746 1.929348111 -0.205890223
-0.103598960 0.288791627 -0.075564213
0.462156087 1.503291726 0.407779783
-0.073879696 0.906861007 -0.008918354
-0.335367829 0.405097842 -0.157367557
0.093940854 -0.024838859 -0.085445315
0.441443741 -0.203440502 -0.118155725
0.327437043 -0.176042184 -0.088851169
1.649562955 1.388198376 -1.085321188
1.619940400 2.063060284 -0.154346749
1.472694755 1.674601793 -0.690269351
0.089737445 -0.024145171 -0.084282666
0.734110117 0.213227406 0.281794548
2.213173866 0.058681421 -0.278401822
0.210493326 -0.179195598 -0.411625683
0.269954890 0.271853119 -0.050005447
-0.395532042 0.184755072 -0.207426324
-0.008289412 0.108862869 -0.261284173
0.606345773 -0.084548838 -0.212969124
-0.096704945 0.222964153 -0.046803147
0.706261218 0.217965633 -0.066089392
0.390059650 0.594700933 -0.019472243
0.662259519 0.190812275 -0.398545682
0.534860075 -0.151365250 -0.224415407
0.810162306 -0.062129185 -0.088385947
0.327133656 0.627399623 -0.016579129
0.855179965 -0.325752407 0.274437279
13.255227089 5.184187412 0.493153930
0.536464870 0.768351257 0.326684147
2.562257051 -1.435780168 0.772232890
0.094665997 0.284571767 -0.050703067
-0.105052263 0.170706853 -0.065286353
0.311505467 -0.159728244 -0.105860554
0.614126921 -0.366711795 -0.077011421
2.236515760 0.411121696 0.393593073
1.097825408 0.641551554 0.221678972
0.202702537 0.679495156 -0.367603123
0.466669798 -0.073218733 -0.056948323
2.696945190 1.684578180 -0.497790426
0.727478147 -0.090560921 -0.095449835
0.141462073 0.103448316 -0.125117540
-0.890763998 0.515470564 0.005298315
-0.168996871 0.416954160 -0.899534106
-0.136825159 0.741628051 -0.375706583
-0.126376674 0.679614723 -0.357689887
-0.170738816 0.516137779 -0.383160293
0.142616034 -0.081578143 -0.178748548
0.163787752 -0.081116989 -0.248138860
0.045290153 -0.035410617 -0.081146024
1.679070830 -0.515227675 0.023734165
0.052678570 0.004633494 -0.083634339
0.048743956 -0.024757704 -0.090541631
0.052352119 -0.016246080 -0.096205607
0.017512215 -0.016321000 -0.075425819
1.094602346 -0.226300180 -0.061271384
0.639751077 -0.292225510 0.203000322
0.060942743 -0.074625611 -0.082744092
0.314257026 -0.219291478 -0.204190031
0.103750654 -0.140441775 -0.088577233
0.479015559 -0.248965755 -0.130598187
1.552083969 1.823316932 -0.778937995
0.288605869 0.370151341 -0.117421038
0.062028334 -0.065479226 -0.118001193
0.580738783 -0.563360393 0.167495221
1.617076516 0.121409923 0.192099616
-2.097505808 -3.865365744 1.471052885
0.426865160 -0.041132152 -0.337133884
-0.205039471 2.337666273 -0.330423951
0.049521450 0.811853886 -0.283197016
0.792999148 0.064001054 -0.364908904
4.308563709 1.857013822 -0.735989809
-0.403908968 -0.276898086 -0.397126049
-1.004093289 0.477784514 -0.362976193
-0.941980422 0.746622741 -0.378693163
-0.042900231 0.810621858 -0.305931091
-0.395489812 2.152013063 -0.316015512
-0.151680276 1.320387483 -0.424330890
-1.227396011 0.739940822 -2.421547413
1.138893723 2.129248381 -0.826815784
5.660211563 1.829057336 -0.702172697
-0.304253012 0.035619982 -0.608778477
2.380221128 1.047167063 1.267379522
-0.568322837 -1.114948034 -0.325185657
-0.294308543 1.694054723 -1.228885055
-2.301029682 1.413716674 -0.255797267
0.677627444 2.161330223 0.772387505
1.825634122 0.486404002 -0.723775387
-4.086556435 1.928226709 -0.270368785
0.205755576 0.534665883 -0.887182057
-2.175973177 2.527285099 -0.491492301
-0.879662275 0.381544262 1.578445911
-1.776030779 0.928400993 0.054402284
-1.083686113 0.316262841 -0.398354650
-1.779776931 1.379673600 -0.567635715
-1.144573092 0.690317333 -0.452480346
-3.956737757 -1.591126204 1.399480343
-4.407219410 2.855001450 -0.437570870
0.020805424 0.800683975 -0.260812283
0.007173594 0.542027235 -0.894391119
-0.193654016 1.320872545 -0.415945619
1.335150480 0.963206172 1.667940855
0.184795380 1.577536345 -0.648167312
-0.174614519 -0.624927521 0.060677502
-0.395886987 1.485420704 -0.329754919
-0.193642825 0.496768117 -0.405785590
-0.226596832 1.538028359 -0.852977812
-0.539839327 -0.758610785 -0.740791023
-1.563997626 -0.983055949 -0.404722959
-2.023747683 -0.901969790 1.515592098
-1.526730418 -1.183997393 -0.300816685
-2.558104992 -2.151015759 0.080380231
0.001233264 1.140264034 -0.403156847
-0.792168915 1.986257434 -0.756495535
-1.134158134 0.551420927 -0.455652267
-2.371500492 2.840395451 -0.102889337
-1.347263932 0.986011803 -1.030251384
0.767269075 -0.270841569 -0.397791356
-1.224027753 -2.186501503 1.604431868
0.140526578 1.608012795 -0.579788268
0.150892913 1.629018426 -0.533662200
-1.236077785 -3.576545954 0.297759593
0.049608387 0.830400109 -0.382687002
-0.310327500 2.590057135 -0.423324734
-0.022735685 1.345374942 -0.432133704
-1.789898515 1.504109263 -1.077034235
-1.355038881 0.976211846 -0.990487337
-0.448887825 0.407807410 0.252542824
-2.333267689 2.216908455 1.616450071
-2.635621309 3.051012278 1.248187661
-1.806063294 2.556684256 -0.646102548
-2.000781298 0.738099456 -0.109223925
-0.422090918 2.927073717 1.312039852
-2.419184446 2.411880255 1.653687596
-1.364451528 2.574166059 -0.819667697
-2.346955061 0.938311338 1.281095624
-0.423480123 2.238946915 1.545420051
-3.293883801 -0.152808934 0.210906252
-2.187244654 4.251016617 1.291282535
-1.367341042 1.306306601 -0.389292151
-4.630819321 1.690971851 0.508578479
0.005063463 0.589037001 -0.363581210
0.042778939 1.716137648 -0.660717130
-1.190611839 0.081971489 -0.397162199
-1.964650154 0.968183935 1.645565987
0.834848523 3.242459059 -0.013789232
-2.178950310 3.366768599 -0.097584583
0.452394128 0.225504324 -0.915976703
0.707964242 0.184804961 -0.740625620
-0.105482198 0.566729665 -0.368459731
4.396935940 -0.195480660 0.588754594
-0.820092857 -1.792482734 -0.386853278
-0.737065017 -1.109507561 -0.349705696
-1.795615792 1.260486960 -0.752684712
-0.172132820 -0.863391340 -0.418349087
-0.197942957 0.524889946 -0.404306114
-2.660367727 1.586076140 -1.295780540
-0.735167623 0.759824753 1.158618331
-0.187124267 1.312022209 -0.418034464
-4.722263813 2.655589819 -0.024951916
-0.304736346 1.615140915 -0.435856074
-0.460447311 1.527613282 -0.540511966
-0.064079806 0.813945055 -0.286358178
-0.304609120 1.614909291 -0.434758931
-0.463400781 1.525843859 -0.540397644
-3.295322657 2.352729559 -1.238908172
-0.312263250 2.661848307 -0.429511786
-2.588781357 1.088171244 -0.778613806
1.961039901 2.172361135 -0.312920034
-4.558719158 0.852898479 -1.320899129
1.360971570 1.448084950 -3.631610632
-2.588933945 1.735314250 -0.722766817
4.706788063 2.399642467 1.011432171
-2.974277258 3.394071579 -1.539681435
2.366189241 2.705428839 -0.782029092
-0.156577781 0.371634096 0.490493298
0.157509834 1.648762465 -0.421465844
0.065140389 0.915309727 -0.315924913
-0.464977086 2.331854105 -0.264164746
0.025562851 0.417732447 -0.392356843
-0.155804753 0.479080290 -0.468607157
-0.149797052 0.787195206 -0.779656887
0.231456965 3.151000977 0.559043944
0.028885931 1.229657888 -0.359070688
-0.419310927 2.218069315 1.491375446
-1.662889957 0.432559967 -0.742688060
0.849065721 1.955828309 -0.867861569
-1.833067775 126.479209900 6.795260906
0.606548429 4.537326336 -0.145485580
0.718455613 4.969851971 -0.155968890
1.746461511 2.475058317 -0.187588841
1.584354520 0.786003590 -0.161881655
-0.035936285 3.040391445 -0.456620097
1.867922425 1.312799454 0.550480783
0.151656628 -0.093175478 -0.216108337
0.089279748 -0.100589782 -0.080356620
0.096397690 -0.155961573 -0.199215710
0.089459091 -0.084561281 -0.067712709
0.097532049 -0.154995292 -0.205740228
-0.012115866 0.635365844 -0.370369703
3.816275835 1.996567607 0.867149115
1.376973152 3.497622728 -1.518690944
1.745260835 3.517928600 -1.220348954
3.549468994 1.862974167 0.811520517
-1.446771860 2.455312014 -0.959918499
-0.015729096 5.635960579 -5.776900291
0.096494198 -0.131905913 -0.073886290
1.140657067 2.038991213 0.238489762
0.924162865 2.192257643 -1.012046576
0.581900775 2.784941673 -0.038785286
-0.087176174 0.485953689 -0.655361354
1.579035640 2.741331100 0.830505013
0.995819032 2.950459480 -0.323178023
-0.437317073 2.490783691 -0.478848279
-4.121765137 2.111245632 0.023910120
0.672430336 0.974607944 -0.335897982
-2.550229549 2.978182793 1.197708130
-2.348353386 0.937738061 1.288338304
-0.423388690 2.841636896 -0.275523543
0.254004300 1.315650821 -1.123731613
1.081957102 0.072072454 0.116347894
0.539842665 1.580596209 0.447799146
-2.023044586 1.514453411 -0.189573333
-1.336238384 0.976622880 -0.654722750
-2.004311085 1.285629749 -0.815548897
-0.762821436 -0.829195023 -0.301899701
0.243703634 0.591531813 -0.282383323
0.024960959 0.418353140 -0.390302032
0.044994980 0.928010404 -0.392890036
0.497302711 2.136459827 -0.667611003
-0.665516913 2.568319559 -0.304550439
0.130726174 -0.151838571 -0.138220072
0.042062614 -0.052085742 -0.108351342
0.249759763 0.534383416 -0.011811372
0.095029570 -0.142012671 -0.075421087
-0.102501333 0.229402229 -0.231766239
0.119575985 -0.147112355 -0.082149684
-0.061162297 0.198268011 -0.000678693
0.350711852 0.106900357 -0.221064508
2.905441046 0.851216912 -2.192738533
-0.127963111 0.299807578 -0.274116516
0.166394353 1.448801279 0.245999202
0.312101990 0.794805646 -0.272527069
1.972963572 0.719984949 -1.557895899
0.088966958 -0.157180473 -0.044556271
0.229692608 -0.200858042 -0.027192105
0.133102417 0.375218958 -0.036185425
0.364089698 0.413324445 -0.197031811
1.928754807 0.701071858 -2.180233240
0.276517600 -0.166359395 -0.154877990
0.621582448 1.338414907 0.036801495
0.161554664 0.117868774 0.330787778
-0.096184753 0.342311025 -0.051133573
1.752865791 0.884462297 0.037728563
0.009884577 0.508449793 0.161882922
0.361136347 -0.200677320 0.030719457
0.345187396 0.710345984 -0.102390423
-0.102280505 0.999174535 -0.174719349
-0.125325471 0.368161738 0.001675341
0.101160221 -0.093961611 -0.074068300
-0.325734645 0.678665936 0.094161555
-1.301978827 6.014571667 0.549133718
-0.764519751 2.339758873 -0.872307420
0.028109876 1.306757689 -0.395519376
-1.602587938 2.640985727 -0.921428859
0.407671660 1.207234859 -0.386505365
1.680232167 1.050962567 0.276156932
2.017156363 0.482723087 0.065710694
0.019116124 -0.101608112 0.026109938
0.109898418 -0.131095573 -0.084020548
-0.144546896 0.956160605 -0.184463263
-0.124199033 0.480647534 -0.479371309
-0.127822623 0.284568518 -0.050867930
4.021260738 2.274865389 0.972374678
0.062061291 1.204619288 -0.220083579
-0.559719622 15.935697556 1.505889177
-0.023331473 0.920902550 -0.241092101
0.875799596 -0.136576667 0.318546206
0.583711863 0.358781934 -1.916543722
1.324945927 -0.438351870 1.541815400
1.525699973 -0.473596275 1.549584627
2.175714731 0.476583540 -0.823424935
0.141755939 -1.027612448 1.711807132
1.541368604 -0.483051479 1.566764951
-1.587254167 -1.263287544 -0.197370261
-4.074431896 -0.361917734 0.264953971
-4.023871422 -1.663298011 1.399667501
-0.825539470 3.817359209 -0.655213892
-4.283052921 3.938022137 0.384693772
2.024601221 -0.422878027 -0.214425147
1.304377079 -0.403211087 -0.139037967
2.107387066 -0.554173887 -0.216749564
0.815624952 0.129755929 0.322373033
0.354658872 0.865248024 0.271895349
0.152656794 -0.141043574 -0.118673079
0.161882818 -0.177248821 -0.250446677
0.094111770 -0.128495067 -0.073074065
1.949216366 0.965759575 0.188736260
0.121116765 0.525962591 0.325164676
10.443009377 43.444622040 18.413763046
-0.052800868 -0.111239657 -0.169379815
0.035474472 -0.116513804 -0.115245923
0.075034916 -0.093878031 -0.081536233
0.024960374 -0.116651572 -0.048144266
0.031482875 -0.059882075 0.053981710
0.096567824 -0.138490736 -0.079318643
0.020100508 -0.126560390 -0.126908273
0.029285558 -0.122677721 -0.043881208
-0.057374932 -0.030683292 -0.771401525
0.039362647 -0.079057060 0.044056062
0.030094212 -0.054625906 0.057393011
0.038135167 -0.133503839 -0.035880160
0.066943921 -0.120696411 -0.098190330
0.142307103 -0.147313014 -0.165009007
0.121399090 -0.135234624 -0.080048524
4.195320129 0.677014828 0.082191326
0.795207262 -0.148935020 -0.123838857
0.096280828 -0.132335767 -0.072758459
0.360191315 1.253056765 0.346921384
1.191635132 0.543307543 0.292061269
0.157072291 -0.189796999 -0.061131019
-0.134112298 0.446134686 -0.058982477
-0.082405552 0.648159087 -0.060057774
0.323599577 0.078768507 -0.198438093
0.512291491 0.751801431 0.314232975
