ply
format ascii 1.0
element vertex 1283
property float x
property float y
property float z
end_header
-0.009668294 -0.016793370 0.026181908
-0.002916767 -0.063786209 0.064967453
-0.008986656 -0.010229412 0.023214653
-0.007624673 -0.009852177 0.021377994
-0.007283840 0.001944549 0.006059213
0.005206787 0.000790227 0.005948924
0.000032646 0.002237166 0.006198724
-0.065822750 -0.063411556 0.075394124
-0.043495119 -0.059079632 0.071639918
-0.001670929 -0.028687872 -0.000525084
0.004740183 -0.053863533 0.050432980
0.008967985 -0.049554389 0.064512618
-0.020929523 0.025611185 -0.044579983
0.042028729 0.021421507 -0.058801401
-0.020182304 0.023467291 -0.041317258
-0.020631406 0.010491737 0.007560560
-0.055259932 -0.059798982 0.036296248
-0.000734755 -0.000255480 0.009199837
-0.012036438 -0.027665567 0.039686538
-0.030035349 -0.003042543 0.009588238
-0.021693043 -0.026443020 0.031952802
-0.023604563 -0.015839187 0.023559310
-0.018917518 -0.016752172 0.027696319
-0.038584717 -0.008575904 0.006581340
-0.012557853 -0.031284723 0.042761151
0.012445973 -0.116588764 0.130454659
-0.008585903 -0.009450534 0.028287427
0.018069331 -0.096607916 0.101071417
0.018221125 -0.115341224 0.119766630
-0.006092909 0.001845587 0.005856319
0.037893213 -0.044954777 0.050762746
-0.022465570 -0.002568158 0.001426013
-0.000607241 -0.000239369 0.009230752
-0.021902543 -0.003339517 0.009383503
0.033504583 -0.009872158 0.024582319
0.031239480 -0.009069926 0.022499865
0.005277446 0.000985639 0.008098210
0.008982759 0.004209021 0.004465589
-0.010480845 -0.003705095 0.016235052
-0.909736454 -0.603698432 0.927755237
0.180878818 -0.250478983 0.460546106
-0.025659105 -0.027257934 0.032101262
-0.017499425 -0.018942349 0.027930332
-0.024971668 -0.014736009 0.031432915
-0.030185441 -0.013487640 0.027693707
-0.007639194 -0.012768088 0.039456941
0.004701560 -0.054058630 0.046451330
-0.006246447 -0.002165046 0.011549209
0.003651515 0.000774593 0.006164574
0.005750166 -0.000052012 0.007089674
-0.023873109 -0.015888004 0.025526516
0.019140540 -0.008800662 0.034024414
0.004745229 -0.039001256 0.074968711
-0.230855167 -0.016438872 0.152372465
-0.007568728 -0.012075082 0.039167307
0.005662128 0.000846904 0.006292387
-0.018188536 -0.001274061 0.004198570
-0.002706405 0.001507439 0.006800920
0.027351778 0.004225186 -0.035651453
0.025788184 0.006019867 0.001854241
0.019317331 0.045730133 -0.092028096
-0.073261492 0.016342338 -0.053289764
0.025590040 0.005964614 0.002015793
0.000791946 0.020044237 -0.006595744
-0.029107250 0.009046493 -0.011388650
0.036809560 0.028219210 -0.050468005
-0.002455486 0.000628117 0.008225761
0.000636539 0.000656281 0.008393148
-0.007278239 0.001943620 0.006050438
0.013202317 -0.024775511 0.014791649
-0.026127722 -0.052440353 0.031932399
-0.015839607 -0.047632877 0.030978099
-0.009130420 -0.006628411 0.026584482
-0.008527109 -0.017858770 0.037871674
-0.023979949 -0.012926322 0.020972101
0.003693851 0.002074568 0.006730988
0.028649000 -0.017697997 0.036520161
-1.149353623 -0.824359238 0.654801190
-0.112972975 0.004284790 -0.042739812
0.007763610 0.003153872 0.005456326
-0.946840763 -0.402188629 0.134536758
0.012907144 -0.005575977 0.013105530
-0.051755041 -0.030240474 0.006594973
-0.000976946 -0.000276100 0.009340349
0.025379211 0.005955407 0.001521504
-0.422760546 0.040316649 0.021826828
0.009412565 0.003174295 0.007613634
-0.036092896 -0.000180351 0.010592915
-0.053194158 -0.055031270 0.036366187
-0.019824328 0.004836557 0.006767509
-0.026081460 -0.008653924 0.015993761
0.008564198 -0.039313760 0.022263590
-0.010050141 -0.007834272 0.032324065
-0.001390909 -0.014432244 0.042354263
-0.019463679 -0.001747125 0.001661748
0.009141334 -0.043631673 0.025411423
0.008939082 0.004283336 0.004541718
0.004091830 0.002843584 0.005810057
-0.030633204 0.025081696 -0.041916907
0.001073073 0.011748830 -0.008231662
-0.024965748 0.004521055 -0.002051952
-0.035329115 0.004473861 -0.044326425
-0.298239917 0.116645865 -0.298665345
0.002792568 0.003659031 0.002949555
-0.002839074 -0.000304000 -0.032669138
0.004775370 0.006668862 -0.039966315
0.011832816 0.001480405 0.002800408
0.006952785 -0.013607135 -0.034764502
-0.002684051 0.001766894 0.006609679
0.003720309 0.002079815 0.006799932
0.033536237 -0.050662108 0.053737834
-3.397714853 7.692199707 8.713843346
0.003647535 0.002524416 0.006086936
-0.009768318 -0.007968727 0.032377549
0.000697797 0.000666096 0.008042405
-0.022176642 -0.014237681 0.019863285
0.073693670 -0.031583622 0.019766396
-0.001235369 0.010953401 -0.005569621
-0.016415246 -0.047768656 0.030676888
-0.004987806 0.021431575 -0.004232766
0.000319179 0.012070887 -0.008813620
-0.056410301 -0.011082574 -0.018403223
-0.082844235 -0.017075773 -0.028518813
0.000501486 0.000718654 0.008407019
-0.006908217 -0.011836422 0.037795022
-0.952537060 -0.433635443 1.000249743
-0.056819774 -0.058708008 0.037859883
-0.047672972 -0.020169079 0.025518633
-0.002174424 0.000116173 0.008984173
-0.020883460 -0.008479510 0.021604160
-0.002859906 -0.050020635 0.063992359
-0.120702222 0.029056605 -0.089447357
-0.109148696 0.004437503 -0.043073077
-0.053906858 -0.055183087 0.036215942
-0.610689640 0.199069485 0.038320500
-0.006846547 0.010829229 -0.007431442
-0.002259792 0.012428833 -0.007547547
-0.025460677 0.013258727 -0.002008334
-0.021284712 -0.002259005 0.001316856
-0.017298752 -0.016356833 0.035469692
-0.028122209 -0.008995289 0.016734777
0.011601761 -0.099556930 0.112648852
0.016703606 -0.049046397 0.028715786
0.002702858 -0.058850832 0.058824852
0.038700692 -0.176033840 0.240226030
0.040207323 -0.002832344 0.011219035
0.017157158 -0.010223854 0.037033603
-0.021891396 -0.022353049 0.024656560
0.040648006 -0.064753056 0.062407002
0.021432819 -0.042255379 0.026543062
0.020478508 -0.067360133 0.058175672
0.009188439 -0.066350907 0.056635436
-0.024047222 0.003208942 -0.000033637
-0.018008564 0.001637841 0.003202547
0.003698180 -0.000505498 0.006753285
0.037902065 -0.004696219 0.010468689
0.030592795 -0.065159112 0.056151982
-0.001471572 -0.094409607 0.088489063
0.004198948 0.001269153 0.006091896
0.038452618 -0.054276567 0.053060457
0.057373129 -0.077322654 0.105425432
0.034353260 -0.042182706 0.057751819
0.033112273 -0.014659698 0.034481071
-0.005424764 -0.015408364 0.040428858
0.015949778 -0.074934103 0.097743407
0.030244138 -0.012511671 0.030141344
0.025351228 -0.045104273 0.083523527
0.031802312 -0.043585360 0.025363073
0.066797659 -0.105021685 0.101639085
0.040390369 -0.074535154 0.071851552
0.040735397 -0.018600861 0.010719670
0.010730027 -0.026773993 0.016764898
0.041047845 -0.039002605 0.024530208
-0.029523453 -0.051917303 0.031470940
-0.002818732 0.001773236 0.006379256
-0.000841691 -0.000161423 0.009355588
0.000891510 0.000547660 0.008144862
0.005640343 -0.000195155 0.007114856
0.004038150 -0.000451825 0.006802365
-0.005182636 0.009703734 -0.006616458
-0.003418922 0.012098894 -0.007171378
0.005629439 -0.049171094 0.067484349
0.039338328 -0.052809007 0.056903895
0.000649864 -0.083246253 0.078008927
0.004972814 0.002422218 0.006394504
0.003088578 -0.005113572 0.030305466
-0.085272774 -0.060093112 0.039528724
0.002107287 0.039478853 -0.074246213
-0.039897531 0.022748878 -0.066609696
0.025359815 0.017828768 -0.053838350
0.017533056 0.041929673 -0.083603665
-0.091855332 -0.015579608 -0.018205950
-0.001417669 -0.012831325 -0.012456092
-0.001646210 0.000146196 0.008842106
0.005788872 0.002965716 0.005358982
0.011082288 -0.027424309 0.017553058
-0.044014785 -0.025536340 0.028997222
-0.002611062 -0.058645800 0.060522627
-0.025152626 -0.005644677 0.018229138
0.009428233 -0.005136535 0.007077501
0.020529587 0.031584002 -0.014661052
0.037808396 -0.015533977 0.037425186
-0.015112945 -0.012989035 0.030181978
-0.020988256 -0.026508391 0.032010190
0.019748336 -0.043292571 0.027488904
-0.016304489 -0.050693437 0.029259246
0.007144940 0.002514041 0.005080113
0.055548843 -0.001895216 0.007802330
-0.017831489 -0.001188430 0.003699672
-0.089673638 -0.031858291 0.031833310
0.033339340 -0.078900352 0.144643128
0.029634319 -0.069218934 0.055103533
0.054145560 -0.120755643 0.165655896
-5.707354069 -1.109796643 6.582046032
-0.018357759 -0.001304532 0.004327807
-0.020780602 -0.001045701 0.006269704
-0.066982009 -0.005792512 0.021455301
-0.008966503 -0.009735905 0.027345465
0.136001825 -0.036718253 0.033071999
0.007317590 0.002558559 0.005249884
0.007721445 0.002616064 0.006194361
-0.006291876 0.008022876 0.010912010
0.008539794 0.002272287 0.006782115
0.015572258 -0.010149831 0.039114695
0.043973356 -0.033120830 0.018901052
0.018413194 -0.017318189 0.033562824
0.095636547 0.014302573 -0.042323709
0.033086501 -0.001771135 0.029734250
0.074522533 0.018275307 -0.018809546
0.024735797 0.034625024 -0.062826201
0.011591196 -0.044329677 0.028616635
0.041690692 -0.097071581 0.127374813
-0.014652932 -0.024391947 0.067621566
-0.453203887 -4.026284695 2.376286983
-0.011296679 0.001117169 0.002449585
-0.014785579 -0.021837687 0.034031019
-0.038028814 -0.045221176 0.027908884
0.032190409 -0.009358529 0.023515748
0.032466803 -0.003805486 0.016197637
-9.049873352 -7.482281685 10.145135880
-0.023895521 -0.018607922 0.019594740
0.007936567 -0.005007773 0.010576359
0.032796174 -0.043997027 0.025723426
0.003652503 -0.042601995 0.081098385
-0.002208110 0.000090392 0.009053080
0.005705227 0.000793298 0.006244454
-0.002625120 0.001691546 0.006595338
-0.005512129 -0.015015870 0.038590766
0.000264420 0.000715990 0.008593282
0.057888877 -0.130380377 0.180230796
0.036156662 -0.078536555 0.082297854
0.032894671 -0.010388742 0.023582965
0.018970272 -0.008788117 0.034189172
-0.002569269 0.001185838 0.007158879
0.035957292 -0.041662838 0.024323463
0.224096879 -0.345393807 0.878842056
-0.002616217 0.001436605 0.007116167
-0.019905247 -0.008331957 0.021258457
-0.019009456 0.001243644 0.002680594
-0.022612603 -0.001149054 0.006794902
-0.024980575 0.006145163 0.001578267
-0.020452827 0.001623692 0.001146763
0.008990958 0.004201419 0.004453320
0.000131766 0.002292115 0.006142974
-0.021049982 0.002390369 0.001355842
0.001459711 -0.080329046 0.074981317
0.004935785 0.002428932 0.006412517
-0.009658519 -0.016251104 0.026450640
-0.020504512 0.005475917 0.001493014
-0.033247292 -0.020195998 0.022711370
0.116170429 -0.053761467 0.030070104
-0.025685688 -0.008705420 0.015899781
0.036346681 -0.041440099 0.023947712
0.006319812 -0.000382213 0.007960118
-0.088866055 -0.015759384 -0.017018985
0.007896791 0.002310017 0.004206594
-0.021597512 -0.007752692 0.016849242
-0.140164644 0.001074275 -0.026791058
-0.006504468 -0.001877462 0.011418791
0.005735045 0.004842862 -0.000100760
-0.020119242 -0.024639837 0.035841968
0.038255736 -0.089839451 0.096760765
-0.003224006 -0.006361313 0.010663314
-0.086666778 0.005926360 -0.036998980
-0.035438981 -0.007952078 0.018436067
-0.019332649 -0.040670712 0.015672555
-0.074428752 -0.034044266 -0.003773402
-0.022635832 0.007761450 -0.005674441
-0.019975077 -0.028747655 0.040882919
-0.020875411 0.000394620 0.006921409
-0.318673223 1.011430264 -0.572401464
0.008714182 0.002273997 0.006749040
-0.004070167 0.012524876 -0.007030173
-0.046686601 -0.011740739 -0.065532304
-0.382664174 0.007765738 0.220069990
0.004963205 0.016714491 -0.005375484
-0.022900747 0.002898554 -0.002740581
-0.003019478 0.001842883 0.006580160
0.005663571 0.000412796 0.005940732
0.007597567 0.003244471 0.005520017
-0.006456521 -0.010029961 0.016733350
-0.020833062 0.023740998 -0.040828560
0.017317457 0.032550987 -0.073883787
-0.040075090 -0.012010068 -0.018451968
0.017167196 0.031055873 -0.070949018
-0.050541017 0.011203874 -0.041896161
-0.012214766 0.015696712 -0.028025111
-0.020769736 0.023006080 -0.041236673
-0.065606609 0.013618479 -0.015068809
0.021433946 0.029495483 -0.017519912
0.015696293 -0.001654476 -0.039819069
0.176801413 0.185074866 -0.218970805
0.004474576 0.016285723 -0.008615812
-0.033171620 -0.005165733 -0.030846123
-0.015421905 0.004819655 -0.041400906
-0.000908909 0.039845951 -0.018874450
-0.088746227 -0.013797291 -0.032790061
-0.019794287 -0.002420900 0.016984908
-0.025456125 0.005694816 0.001813064
-0.023622697 0.008678872 -0.004855650
-0.003887074 -0.029864592 -0.001632613
0.005079850 -0.000002556 0.005048219
-0.024411911 0.010895582 0.004947148
-0.024572060 0.012137077 -0.010917407
0.006359922 0.004165276 0.004916210
-0.026602311 0.012986217 -0.007487408
-0.001872327 -0.054769520 0.057479650
-0.017959967 -0.029353421 0.039275993
0.005928986 0.002864551 0.005370048
-0.011890750 -0.005626509 0.027830632
-0.010608308 -0.008617428 0.027342815
-0.004168087 -0.015473584 0.040441949
0.007018500 0.002563492 0.005262649
0.000429580 0.001783004 0.000630783
-0.002081835 0.000532382 0.009348534
-0.088988528 0.002482098 -0.038758203
0.005008860 0.002415075 0.006265533
-0.001012173 0.012400388 0.000272147
0.020912385 -0.020637790 -0.012372992
0.032228895 -0.030439213 0.006623314
0.004093681 0.014824574 0.002972457
0.039403077 -0.004554895 0.010435197
0.101413824 0.035906445 -0.054402750
0.022199644 -0.021256302 -0.012687310
-0.002759445 0.001746798 0.006652295
0.007674195 0.017409312 -0.001930192
0.000634444 0.001190332 0.015241211
-0.034815747 0.010845874 -0.020041080
-0.173799425 -0.028460212 -0.021474857
0.005768692 0.003060753 0.005309380
-0.043945335 0.000326281 -0.006018568
-0.035282247 0.010102819 -0.011059081
-0.012330823 -0.014838076 0.030145086
-0.024041286 0.010562764 0.004700792
-0.017046481 -0.018268228 0.030426536
-0.002253251 -0.003908794 0.018668782
-0.079284213 0.021801600 -0.069433071
0.007876995 0.014160141 -0.008211054
-0.066011712 -0.021971559 -0.022797791
0.005219866 0.001035952 0.008221736
0.016133904 -0.026049983 0.029956134
-0.076695159 -0.073694170 0.114139661
-0.194582835 -0.335903585 0.452833921
-0.019405369 -0.016467936 0.026806833
-0.008938012 -0.015760818 0.025433186
0.025167888 -0.046257317 0.051873401
-0.023106817 0.011319724 -0.010276617
-0.019036978 0.001704053 0.003003116
-0.026001606 -0.003327033 0.027835520
0.220365599 -0.518829048 0.586231709
0.005767876 0.002840510 0.005170722
0.007170023 0.002625630 0.005001810
0.000158041 -0.000083178 0.008464466
-0.010629285 -0.013820235 0.028000927
-0.024384506 0.011404684 -0.010534974
-0.399395347 0.101350024 -0.177822754
-0.009209308 -0.050103538 0.030142812
-0.002107827 -0.016536186 0.038544387
-0.008873748 -0.000965147 0.004670824
0.005927474 0.000044484 0.007791835
-0.002619454 -0.008088117 -0.028833106
0.008109277 -0.123967938 0.131914958
0.017808558 -0.106620871 0.123428456
0.001254913 -0.107154839 0.100599445
-0.036343988 -0.017334895 0.019033855
-0.033022825 -0.021013888 0.022451103
-0.013388235 0.017465826 -0.023255154
-0.022330016 0.027850777 -0.046971090
-0.085793160 -0.060410343 0.039938662
-0.025089199 -0.044700388 0.028098166
-0.011514937 -0.055541392 0.033020128
0.068596445 0.009281138 0.023207372
0.001218510 -0.073156364 0.068724260
0.031956628 -0.042366348 0.024746329
0.052528888 -0.041449424 0.023418380
0.037970535 0.000568220 0.012732062
0.063349269 -0.002366638 0.009327197
-0.003548700 0.012357718 -0.007386445
-0.021154039 -0.021480279 0.035114098
0.005792650 -0.048592303 0.062503390
-0.022158343 -0.013983864 0.019855851
-0.235714525 -0.068630010 0.068875700
-0.020722575 -0.008173688 0.021403065
-0.122439712 -0.055465188 0.054018140
-0.006209158 0.007963431 -0.010479155
-0.012974516 -0.003787020 0.020341014
-0.257626057 -0.023116814 -0.372202605
-0.001525108 -0.000804568 0.006017699
0.008426483 -0.000591504 0.006121571
-1.306739450 0.211658850 0.062679403
0.000060233 -0.000087723 0.008542853
-0.007750859 0.011406853 -0.007793123
0.076551802 -0.037570562 0.021180037
0.072907045 -0.033066075 0.018018616
-1.299320579 -0.912445188 -0.108080901
-0.060732603 -0.060562175 0.039200176
-0.065070018 -0.010737129 -0.023570368
-0.084782042 -0.064783730 0.052532114
-0.098892845 0.004511471 -0.039335247
-0.009463498 -0.004791157 0.023587812
-0.103040874 -0.017046889 -0.021476213
-0.025199674 0.014655338 -0.000970873
0.000741610 0.000631057 0.008635222
-0.002711562 0.001404717 0.007140351
-0.007446897 0.001783379 0.006019388
0.005642264 0.004724947 0.017667634
-0.003206607 -0.007767894 -0.033218130
-0.002760824 0.014001227 -0.003501851
-0.003507902 0.006659416 -0.011525178
-0.022128891 -0.014219813 0.019808250
-0.021490727 0.016570479 -0.014063179
-0.019236747 -0.024134597 0.030814158
-0.022626815 -0.008882168 -0.033680249
-0.052981898 0.011991614 -0.038828850
-0.050111774 0.011416415 -0.041979991
-0.093623817 -0.000576043 -0.041320343
-0.026323806 0.012837217 -0.006999788
0.027023198 -0.067658663 0.095203981
-0.028992772 0.008646459 -0.009118778
-0.116884880 -0.042806190 0.022084773
-0.127052918 -0.020898696 -0.015368877
0.018425468 0.035712421 -0.042383414
0.006273723 0.027503015 -0.044497959
-0.094511554 0.093582399 -0.161281824
-0.031024868 -0.004480243 -0.029149467
0.004093316 -0.000492325 0.007416822
0.003362477 0.001573786 0.004149045
0.079781063 -0.003268437 0.011320346
-0.060838558 -0.032205287 0.035372619
0.021554003 0.009908203 0.002147700
-0.147505865 -0.053068209 0.028655030
-0.190596595 -0.126559645 0.053611733
-0.064051695 -0.064904459 0.040455539
-0.026071692 0.011546617 -0.000564346
0.008651093 0.002431431 0.006738682
0.009014822 0.004251959 0.004429055
0.007824698 0.002650618 0.006683596
0.009014474 0.004243853 0.004443266
0.005121211 0.000553021 0.007900954
0.001015674 -0.000120000 0.005799579
0.009078442 0.000351249 0.006856752
0.009003074 0.010472644 0.004183615
-0.104239501 -0.078009576 0.063719429
-0.016128806 0.005110066 -0.005094085
-0.017911844 0.000636104 0.002474669
-0.023116713 0.021547576 -0.007511076
-0.064853646 -0.053626239 0.031090857
-0.029765073 -0.024645135 0.023805888
-0.081308305 -0.057768948 0.038441956
0.003210029 0.010058016 -0.003962932
-0.027877456 -0.016401157 -0.017944029
-0.024959482 0.008589525 -0.001769499
-0.053082630 -0.042373721 0.025672382
0.007735029 0.007884927 0.010723929
0.007413988 0.003389619 0.005423149
0.006196858 0.003098209 0.005770219
-0.033423074 0.012728554 -0.012315654
-0.028524458 -0.028225768 -0.003913202
-0.066519447 -0.010640403 -0.024158496
-0.029506706 0.082182102 -0.044312090
0.007689235 0.001525155 0.005441749
0.004626153 0.006710434 -0.001522418
0.003230923 -0.004010892 0.006290811
-0.027503572 -0.002897306 -0.001684227
-0.010481281 -0.002287205 0.016980289
0.074705906 0.027626337 -0.054960378
0.035782516 0.168417111 -0.257043809
-0.004652646 -0.020098155 -0.017462643
0.001685317 0.019901363 -0.014764447
-0.105187312 0.019743085 -0.098480225
-0.025393194 0.013163694 -0.002014558
-0.729682505 0.248474762 0.043811735
-0.027337642 0.034574781 -0.037495058
-0.019243952 -0.007622651 -0.034853056
-0.022447351 -0.008583103 -0.032541592
0.016598703 -0.002749702 -0.034447819
-0.114737213 0.046572510 -0.118014745
-0.315057486 0.052367158 0.090098359
-0.027939158 -0.008891792 0.016445858
-0.159685507 -0.071981043 0.038840812
-0.025597276 0.014711964 -0.002128811
-0.021021100 -0.003228779 0.008976603
-0.014122013 -0.022575490 -0.010723650
-1.607732058 -0.601205587 -0.094082259
-0.000603334 -0.000324762 0.009498014
0.001838364 0.012348514 -0.007842627
0.026278736 0.004585843 -0.035113480
0.014740952 -0.001409984 -0.039233014
-0.002705357 -0.007753416 -0.036855683
0.026463801 0.017526496 -0.017961288
0.023482667 0.013548547 -0.048924878
0.009853482 0.000093812 0.010065743
-0.031347234 0.034947772 -0.083498739
-0.025203140 -0.023529399 -0.007943043
-0.015231158 -0.013352450 0.030092340
-0.034646370 0.009766703 -0.010280815
-0.018813234 -0.028855808 0.043853272
0.003289761 0.001074732 0.006167667
0.003683234 0.000855152 0.008354060
0.003619234 0.000885896 0.008398249
0.004440132 0.012393074 -0.006190241
-0.002395075 0.016510498 -0.004905422
-0.172007740 0.090475596 -0.016452642
-0.022149857 0.020371994 -0.006730154
-0.122200787 0.226135746 -0.296005011
-0.006142505 -0.002180514 0.011490735
0.004701374 0.015955927 -0.007029204
-0.031333100 -0.004905503 -0.029147714
-0.066902198 -0.011128610 -0.024076110
-0.034745861 -0.005585451 -0.033017918
0.004279947 0.013188045 -0.006762795
0.028656999 0.010618384 -0.003313783
-0.030079423 0.010150203 -0.027304459
0.050070480 0.031796630 -0.051586378
0.017967666 -0.001632150 0.012292276
-0.005599346 0.009329560 -0.047606803
0.005114401 0.001041044 0.008254346
-0.002543587 0.016087266 -0.004788367
-0.024769157 -0.016300045 0.025934523
-0.001764347 0.012089957 -0.007128241
-0.022337196 -0.032199748 0.004033276
-0.161971495 0.079215847 -0.143904403
-0.002831150 0.000230015 -0.033228114
-0.015766092 0.014034353 -0.023634406
0.009887955 -0.002125673 0.006338120
0.008979367 0.004332467 0.004400514
-0.003140353 0.000553213 0.008984054
-0.001918580 0.016915062 -0.004817316
-0.349707395 -0.002602625 -0.010039702
-0.017507473 -0.029130641 -0.010053049
0.004967509 -0.000934778 0.007360270
-0.011433695 0.004500181 0.009839079
0.076841049 0.025729965 -0.059235066
0.489205927 0.188580841 -0.236941978
-0.495765746 0.053389471 -0.089388721
0.008639291 0.002395337 0.006693515
-0.033155441 -0.004648434 -0.031157086
-0.031710621 -0.004763885 -0.029805131
-0.038015302 0.006678333 -0.014574938
0.025951060 0.004769616 -0.034965623
0.031995390 0.011230377 -0.003349637
-0.005418465 -0.048048452 0.028971909
-0.090738609 -0.015972642 -0.018186262
-0.048757166 0.010532372 -0.018315032
-0.005760379 -0.004853100 0.020578166
-0.039714634 0.023659898 -0.067736447
-0.023009861 -0.008460425 0.004373380
-0.048705328 0.014016720 -0.038413148
-0.022106605 -0.008736447 -0.033249933
0.003191834 0.001076377 0.006193250
0.001682108 -0.011770648 0.006988710
0.010190078 0.001586718 0.008112546
-0.020288950 -0.003350913 0.024967171
-0.092804521 0.000954474 -0.048180360
-0.023564156 -0.019568648 0.007452110
-0.100777991 0.010569667 -0.054438226
-0.068213776 -0.002317036 -0.036851879
-0.010003217 -0.024249680 0.039713401
-0.046208028 0.012942524 -0.035280947
-0.014860228 0.005488645 -0.042382725
0.098949872 0.038336400 -0.058879200
0.074230067 0.027575742 -0.061023854
0.345298827 -0.027076880 0.031270280
0.011705351 0.000328580 0.024295654
-0.014088527 0.001272483 0.009334775
-0.016811144 -0.006591974 0.018662784
0.008473163 0.002293275 0.007027809
-0.019126063 -0.005048627 0.023260010
-0.003092845 0.001910439 0.007136440
0.005484965 0.002963908 0.005415022
0.020781886 -0.018615697 -0.015499839
0.021158475 -0.020625986 -0.011857415
0.025768479 0.018121362 -0.021915605
0.041189291 -0.003238625 -0.025872532
0.034234457 -0.003895492 0.016942911
0.032140091 -0.009390128 0.023444284
0.009992305 0.004190802 0.005622322
-0.000823948 -0.000206165 0.009400193
-0.000077056 0.002222990 0.006226297
-0.000294606 0.002148721 0.006348433
0.031571653 0.005066341 0.006904357
0.003975781 0.020354804 -0.033215482
0.032107875 -0.004301466 0.016514042
0.067357264 -0.017385812 -0.007705036
0.016957615 0.025055820 -0.046820328
0.037061099 0.035273466 -0.046304636
0.027018638 0.017028460 -0.016436260
0.066982329 0.015226949 -0.016554281
0.008842855 -0.000134952 0.009998362
0.005135674 0.001188339 0.008218898
0.026666651 0.044135109 -0.052084073
0.063288204 0.010355969 -0.040066440
-0.002721043 0.001649379 0.006677343
0.024713516 0.019568261 -0.013813868
0.057981633 0.009896133 -0.037281867
-0.002506631 -0.008273530 -0.026907464
0.091779664 0.035096891 -0.054345563
0.030483291 0.004821199 0.006627795
0.013392518 -0.003005808 -0.030948935
0.005046028 0.001152464 0.008275094
-0.363231868 0.558198035 -0.449711323
0.008541171 0.002212561 0.004914150
-0.097633943 -0.040120374 0.030049533
-0.448469460 -0.384843796 -0.036108267
-0.438509017 -0.001929285 -0.013226287
-0.002517797 0.016314395 -0.004849871
-0.036491890 0.018549263 -0.044365592
0.000886188 0.011394832 -0.008086506
-0.002060647 0.000043867 0.008878141
-0.050498415 -0.013106185 -0.025707919
-0.027825356 0.017540498 -0.003874453
0.011353964 0.006937917 0.008208819
-0.010594659 -0.017313216 0.027185671
0.008557730 0.003062162 0.005901229
0.006670885 0.004544884 0.005297749
0.002663963 -0.000627906 0.008213901
-0.006544876 0.008443523 -0.010798618
0.010400503 -0.001635425 0.005766355
0.007193745 0.028623393 -0.046200894
-0.031954054 0.037479304 -0.086738244
0.019473514 0.017683042 -0.055986557
-0.020719752 0.023513451 -0.041624129
-0.014481242 0.004893663 -0.039965659
-0.002935685 -0.011867003 0.038502399
0.030168166 -0.002212189 0.013720208
-0.012047863 -0.030716963 0.041938901
0.041606173 -0.012364343 0.006827844
0.009589741 0.002206904 0.007686496
0.005883700 0.000187299 0.005850131
0.006793813 0.003115874 0.005029824
0.017503506 0.024798624 0.002095947
0.056478631 -0.037924774 0.021485638
0.094207570 0.036437001 -0.054938532
0.261666834 -0.008925446 0.015758902
0.194000289 -0.007681832 0.011860564
0.084642611 -0.027803285 0.015184111
0.063425012 0.033339337 -0.036778551
0.031652752 0.015924493 -0.011947095
-0.022234241 0.012446082 -0.051493287
0.002062564 0.001201699 0.007424958
0.011485873 0.005543471 0.006464146
0.010193927 0.000365859 0.007949435
-0.016953027 -0.008911531 0.017598221
-0.225542605 0.102051869 -0.154546365
-0.028459925 -0.015943844 0.018023008
-0.007406807 0.001790013 0.006061505
-0.002003395 0.009149481 -0.001613664
0.027397918 0.018270662 -0.014893131
0.028372349 0.014795524 -0.008396729
0.025307326 0.009720948 -0.002950220
0.017305370 0.015081410 -0.005969742
0.025501193 0.012764214 -0.001471455
0.024177086 0.015937187 -0.015780343
-0.109340541 0.115102924 -0.120707050
0.002051278 0.469888628 -0.734793425
0.000748481 -0.007114104 -0.024938107
-0.002824585 0.001666158 0.006654964
0.018620223 0.031388253 -0.046361819
0.023005713 0.017465137 -0.013362521
-0.000031588 0.002223101 0.006239086
0.003617514 0.000921369 0.008371967
-0.048947737 0.456413209 -0.411688209
0.053903043 0.023200098 -0.055970289
0.003838351 0.015419035 0.002556487
0.130809039 -0.035586149 0.033068318
-0.006919880 -0.000428248 0.009764695
0.010775626 -0.013100924 0.023099011
0.029930662 0.012317817 0.001184635
0.021359524 0.017843371 -0.019434683
-0.000085605 0.002258441 0.006212157
-0.034015581 0.014454358 -0.022302121
0.004641288 0.010564893 -0.004745416
0.003506545 0.010203325 -0.004137001
-0.010255836 -0.021323375 -0.007877099
0.001082181 0.006788340 0.002404988
-0.259494394 0.251155049 -0.427948177
0.021999354 0.024403339 -0.012517398
0.002080423 0.045078043 -0.094605364
-0.141136378 -0.048061248 0.024006058
-0.012313278 0.029405441 -0.072237194
-0.038887911 0.008185740 -0.047682673
0.009814820 -0.004917208 0.004291455
0.021886062 0.010106167 0.002043807
0.003320098 0.009607733 -0.003665658
-0.043937750 0.030911472 -0.076045506
-0.032245237 -0.023732822 0.008319986
0.009158023 0.002911736 0.004823239
0.007287948 -0.008037660 0.015091685
0.005560230 -0.009492765 0.019454781
0.003530427 0.013777127 -0.006959091
0.018137369 0.043902192 -0.085847989
0.006694488 0.026505381 -0.042670384
-0.047512289 0.009624577 -0.018024499
-0.228416488 -0.007974609 -0.055208500
-0.057506029 -0.014122781 -0.000976595
-0.094109878 0.047958776 -0.129122362
-0.012006953 0.027634060 -0.070026100
-0.668952763 -0.129961267 0.100585990
-0.085124932 -0.022351511 0.004043052
-0.195454061 -0.064074621 0.029919930
-0.010044323 0.013026926 -0.007388342
-0.126014560 -0.021058297 -0.015587602
-0.005787581 0.009010217 -0.046446141
-0.040417239 0.008201052 -0.047385957
-0.028703792 0.014537971 -0.042746026
-0.014894089 0.004422877 -0.040091291
-0.006783157 0.010604413 -0.007262700
-0.001848470 -0.001182185 -0.029489381
0.018538533 -0.008725717 0.033814833
0.034084987 -0.057176236 0.095326468
0.097213432 -0.005733991 -0.027158856
0.031939581 -0.038877990 0.044733979
0.037189979 -0.044016264 0.050620530
0.077128209 -0.085436128 0.097379699
0.098090209 0.029692162 -0.031420384
0.051159639 -0.014368320 -0.020436095
0.066190355 -0.254222244 0.467466682
-0.002468428 0.000629714 0.008310616
0.006506782 -0.031000761 0.019405005
-0.023546372 -0.017059347 0.024973229
0.003805589 0.009908247 -0.003603063
-0.003870625 0.015166769 -0.024547864
0.006907362 0.003190764 0.004908737
0.004979245 0.014102803 -0.000584807
0.001439229 0.117004573 -0.017038675
0.020907916 0.013924452 -0.005573264
-0.019786414 -0.007551654 -0.035471011
-0.012393618 0.029267721 -0.072049297
0.005129211 0.007148921 -0.040920403
-0.027400209 0.022447363 -0.024509247
-0.122798443 -0.007630619 -0.022923976
-0.532142043 -0.065490745 0.019031031
-0.716186583 -0.078536421 0.022972584
-0.035763454 0.009394488 -0.019222036
0.008463640 -0.034531005 0.018932799
-0.011535129 -0.012633281 0.005034300
0.016809927 0.006792979 0.016966721
0.004866269 0.003565727 -0.004415567
-0.000211795 0.018357988 0.005444066
-0.002586796 -0.029500922 -0.000559358
-0.030338565 0.016004395 -0.025766429
-0.000201040 -0.007922065 0.000118355
0.013410398 -0.015844088 0.040477831
-0.002827413 0.012331640 -0.006326969
-0.008900512 0.019426117 0.016941853
-0.001898484 0.003475335 0.006066694
0.000140087 0.002278188 0.006106556
-0.015760681 -0.016404824 0.026516477
0.004380372 -0.004724212 0.000519760
-0.037715860 -0.002495092 0.022639904
0.003982884 0.008293916 -0.005940936
-0.007837104 -0.005258542 0.028673284
0.004069206 0.018269600 -0.000710943
0.005007285 0.015892606 -0.000716371
0.003211496 0.021254061 -0.000792944
-0.014929133 0.000973300 0.002835299
0.023780050 -0.007301983 0.015885530
0.014057379 -0.027351573 0.016353462
0.177471280 -0.550524473 0.324644208
0.121340290 -0.237472832 0.212872878
0.024280204 -0.009064834 0.007295785
-0.008202986 -0.019945536 0.045952883
0.033736784 0.017449120 0.004123407
-0.046508372 -0.055346675 0.033929415
-0.022638084 -0.002924407 0.017784178
-0.002354914 0.012551853 -0.007679503
0.028373644 0.010348037 -0.002918969
0.040127665 -0.009162297 0.032583445
0.093449950 0.047001578 -0.059986819
0.056347769 0.009763543 -0.036605190
0.016270483 -0.001408633 0.011950848
0.061923280 -0.014370494 -0.002292651
0.010717933 -0.056763023 0.091655269
0.029172147 0.007156653 -0.012991978
0.010001747 -0.037663344 0.091534644
0.009908396 -0.006067696 0.012544480
-0.015021154 -0.019159522 0.030651433
0.081098519 -0.047477715 0.051151164
0.025609976 -0.055091839 0.033450220
0.002287102 -0.003643358 0.029035261
0.032446790 -0.076654799 0.060942940
0.035521038 -0.040146645 0.055340551
-0.026893385 0.001256381 0.004584146
-0.015111031 -0.023253335 -0.011177544
-0.057351448 0.000595834 -0.007487287
0.000836699 0.011415883 0.004045885
0.020110242 -0.067121223 0.057833839
0.078681372 0.015943730 -0.020931598
0.021039141 -0.003029746 0.028394422
0.020357175 -0.018152962 -0.015197552
0.021019876 -0.018412376 -0.015696406
0.034886893 -0.022026280 -0.003234385
-0.011775771 0.042285595 -0.026829565
0.019874752 0.022673927 -0.014820651
0.034366082 0.021968525 -0.047527429
-0.000796320 -0.000256772 0.009332184
-0.002445280 0.000640891 0.008314884
0.078515150 0.004364504 -0.002647670
0.026041158 0.004928886 -0.035415486
0.022291282 0.010911280 -0.005704994
0.021422077 0.014690523 0.001564632
0.129423529 0.066765703 -0.007426872
0.044985939 -0.002589089 -0.029322486
0.081338294 0.032167688 -0.051344320
0.049322154 -0.036891963 0.021206286
0.066722974 -0.043250289 0.054360054
0.148208007 -0.031712636 -0.021563331
0.032330304 -0.030527562 0.006601745
0.020095877 -0.000577464 -0.022808626
0.022878964 -0.002888083 0.029882209
0.062866464 -0.028479436 0.016506637
-0.002056706 0.000120101 0.008943881
0.008522416 0.010461763 -0.003785030
0.123098582 0.007035944 -0.005209198
0.003908875 0.003233001 0.003994097
0.043346263 0.031332236 -0.052037809
0.036069065 -0.013658370 -0.020392841
0.017125955 0.023492387 -0.044782184
-0.006446516 0.021609552 -0.032457888
0.147192180 0.016162505 -0.034608927
0.029232934 0.045726534 -0.087558858
-0.021126973 0.028415821 -0.028182916
0.040153161 -0.040057208 0.021963654
0.041691571 -0.033925872 0.018702509
0.022429077 0.017012948 -0.003961700
-0.007416961 0.001814809 0.006038763
0.005327181 -0.000076780 0.007835250
-0.024146359 0.010841688 0.005359975
0.003462632 0.001095140 0.006162037
-0.009926130 0.023486545 -0.013535781
-0.005815187 -0.006073424 0.008169748
-0.003064194 -0.007881955 -0.031953778
-0.275820136 0.297826946 -0.421424270
0.020769360 0.016252471 -0.003214753
0.022555742 0.026098110 -0.046990525
-0.000015971 0.002148425 0.006299573
0.000944290 -0.018455856 0.035053622
-0.002871976 -0.011909647 0.038590074
0.102856264 -0.025912866 0.015006871
-0.000049127 0.002260353 0.006265235
-0.021988960 0.013405608 -0.011203897
-0.024891300 0.013257165 0.002056192
-0.032033294 -0.001944064 -0.004320907
-0.012744749 -0.002450944 0.004336352
0.026682887 0.019033434 -0.056011193
-0.016589021 0.008873098 -0.016143464
-0.083921045 0.020740649 -0.063055597
-0.041245881 -0.011169869 -0.056451038
-0.029773977 -0.008311637 -0.053037014
-0.002825276 -0.000517296 -0.031551849
0.028899033 0.020609524 -0.059702788
0.037252489 0.025905153 -0.054167829
-0.024747007 0.009358335 -0.005834272
0.017510081 0.000431954 0.019343445
0.073044389 -0.035612095 0.054834817
0.055163469 -0.037569437 0.021561645
0.050950922 -0.113317072 0.147073612
0.038912114 -0.011741047 0.029618107
0.017477671 -0.002695504 0.014109505
0.002547852 -0.003639527 0.028221847
0.003904082 -0.000525696 0.007152663
-0.018501701 -0.016265953 0.027006609
-0.023553113 -0.015881386 0.023747431
-0.021711301 -0.016426366 0.029894657
0.014102294 -0.055251293 0.077293247
0.003558018 0.000782375 0.006249791
-0.003351380 -0.000132435 0.006221864
0.002827846 -0.003637235 0.029387083
-0.028941516 -0.012916981 0.038122691
-0.032916740 -0.002214306 0.021627799
-0.001137311 0.002633182 0.004386036
-0.027694134 0.009553545 -0.007758654
-0.035439845 -0.057949226 0.034643404
0.005094536 -0.027547246 0.017117301
0.063311346 -0.012829483 -0.005786274
-0.001562801 -0.014585281 0.042436186
0.008853597 0.001856455 0.007722273
0.012025926 0.016253203 -0.010559417
0.008323732 0.012448724 -0.005252004
0.008386610 0.012227420 -0.005150298
0.020976236 -0.028134445 0.047545057
-0.001000818 -0.000217445 0.009395705
0.008142963 0.013054657 -0.005547385
0.007990247 0.003799431 0.004645274
0.008558435 0.002960728 0.005947387
0.027736258 0.006250136 0.001691192
0.022087483 -0.020459158 0.039514598
0.023915770 0.000698957 0.012113345
0.034314092 -0.003417114 0.016952366
0.069698989 -0.033318568 0.053249709
0.094258107 -0.020455034 0.016326524
0.005607623 0.001443350 0.006136991
-0.013086409 0.004215152 0.009148090
-0.013555408 0.010849903 -0.014902024
-0.002275192 -0.026844151 -0.001590251
-0.003206403 0.001929597 0.006979688
0.015236463 -0.001069290 -0.038937107
0.003736909 0.025323989 -0.019288680
0.212768734 0.077958040 0.037968487
0.003865545 0.000777471 0.008265708
0.095738463 -0.031524710 0.043990504
0.080865055 -0.039373752 0.055495102
0.070441231 -0.035754450 0.052180588
0.019152818 -0.008805382 0.034181748
-0.000761074 -0.015514928 0.044854630
0.006396538 0.002706415 0.004905869
0.003707440 -0.000347035 0.007650137
0.156342626 0.001117014 -0.011561121
0.030723773 -0.002318887 0.013464437
0.148948878 -0.027871734 0.019858833
0.060374506 0.033892889 -0.045923367
0.001505298 0.012649525 -0.008075337
0.115078799 -0.021210968 0.037527815
0.038043547 0.026500240 -0.046938516
0.086185358 0.018594163 -0.026012093
0.115361288 0.018786361 -0.042308409
-0.006362033 -0.002187893 0.011524512
0.019814741 0.017317269 -0.055831149
-0.000603893 -0.000167634 0.009340584
0.008610934 0.003431146 0.005408781
-0.002931649 0.001841637 0.006586575
0.031947508 -0.029947881 0.006530720
0.004617083 0.002206985 0.007265901
0.006685996 0.002853752 0.005135104
0.020821288 -0.003515322 0.016286418
0.031922933 0.015142022 -0.008288641
0.021417387 0.019207088 -0.001405307
-0.002146154 0.000069832 0.009212594
0.025280083 0.038083732 -0.079030052
-0.021299299 -0.003227833 0.009346371
0.052991830 -0.119582318 0.163617745
-0.002805271 0.001776720 0.006343054
-0.011134898 -0.007354793 0.029055085
0.029585479 -0.008367701 0.020502970
0.053799845 -0.018714804 0.009929455
-0.000626876 0.001375518 0.007185699
0.010751480 -0.005204069 0.013872005
-0.000770354 -0.000150800 0.009242462
0.399210602 0.034164973 -0.013125963
-0.008910074 -0.014857227 0.042157441
0.018882325 -0.008498807 0.032867841
0.053902056 -0.008136782 0.016234737
0.005355033 -0.057837795 0.079164952
0.021538332 -0.007327689 0.034157034
0.002416326 0.002926551 0.005451451
0.017044829 0.004173672 0.018814707
0.119465753 -0.057413504 0.032550767
0.004421968 0.001917289 0.006158495
0.006022300 0.002798664 0.004928882
0.008558233 0.005340522 0.006103464
0.063698500 0.005958082 -0.002538541
-0.009238794 -0.006172303 0.024492133
0.063883930 -0.124751642 0.235234797
0.030911341 -0.060901903 0.070525721
0.015499189 -0.105932869 0.109181128
0.109441660 -0.000259744 0.010112060
-0.005087655 0.015355518 -0.019099414
0.023287054 -0.001626019 0.014783276
-0.004642412 0.013063880 -0.021480085
0.020083115 0.025551870 -0.008849863
-0.002590389 -0.000848143 -0.031874035
0.016859351 -0.017552290 0.031864483
0.020682445 0.018754486 -0.001377553
0.019813981 -0.006930723 0.026802396
0.024872532 0.016260892 -0.015527132
-0.057525437 0.029993089 -0.081616499
0.027345136 0.004644386 -0.036035329
0.043077115 0.029466731 -0.055847075
0.039815031 0.037439536 -0.049305890
-0.002732368 -0.000890485 -0.030883629
-0.004582756 0.013236303 -0.021545183
-0.005561177 0.008897228 -0.046655238
0.023862796 0.000320732 -0.034440681
0.000962305 0.011480238 -0.007931335
-0.040176179 0.047071494 -0.074269138
-0.041533824 -0.095419019 0.056958254
0.014074150 -0.008894366 0.017712081
0.079365186 -0.028139088 0.015441969
0.033329677 0.036233038 -0.042620275
0.046108890 -0.002434540 -0.030777739
0.022573937 0.015924187 -0.014973897
0.020346630 -0.018568970 -0.014892375
0.094517559 0.015137165 -0.042463880
-0.004181513 0.015432696 -0.025007853
0.102644801 0.036656033 -0.055880781
0.022832613 0.016076062 -0.015310890
0.056433771 0.018790271 -0.051813826
0.091528267 0.015579490 -0.042300839
0.031611014 0.021242332 -0.026440419
0.041534990 -0.003082699 -0.026533326
0.034495819 0.017626258 0.004103143
-0.002695993 0.000939319 0.007585580
-0.002336684 -0.000024557 0.008984024
-0.047839019 0.016812688 -0.078379169
-0.027007006 0.027870560 -0.070222624
0.026652364 0.014922681 -0.008906276
0.025733491 0.029781917 -0.034046993
0.064072728 -0.008219257 -0.015507994
0.087198004 0.033105131 -0.062143583
0.035890508 -0.041843805 0.024532482
0.011742067 -0.011888002 0.040824167
0.144001991 0.106976181 -0.118384421
0.072311752 -0.031197881 0.019258548
0.054725122 0.024108136 -0.057222709
0.027134476 0.006271401 0.001931829
0.003726681 0.002079405 0.006827969
-0.002079422 0.000137328 0.008968310
-0.014894900 -0.014484875 0.028883370
0.239107355 -0.010093984 0.085855782
0.007455992 0.010188455 0.010031609
0.085861571 -0.036408391 0.020756738
0.105720155 0.022413630 -0.030193541
0.170584500 0.000343559 -0.012960163
0.063166745 -0.147055432 0.206360146
0.113405488 0.018823987 -0.042212535
0.086909540 0.031653311 -0.062279955
0.032599147 0.031698339 -0.041581672
0.156796962 -0.031260416 0.022720819
0.030082624 0.020250259 -0.059042890
0.161562815 0.017959638 -0.036854193
-0.000843322 -0.000204094 0.009340027
0.025946004 0.017351888 -0.014261040
0.015279244 -0.081595346 0.104316764
0.052774090 -0.113744676 0.187434599
0.041152406 -0.039577600 0.021912618
0.037183437 -0.007774850 0.021704976
-0.025719007 -0.015199641 0.032501724
0.112366579 -0.156965673 0.282986730
0.014396398 -0.014277016 0.027353426
-0.007911483 -0.005207648 0.029384181
-0.021610131 -0.027571671 0.032875963
-0.348679334 -0.136035681 0.356092423
0.004545148 0.003392021 -0.001211883
0.007303174 0.010963157 -0.005635844
-0.005917735 -0.009834209 0.020185879
0.137803331 -0.026511164 0.042667679
-0.031696230 -0.025150061 0.024792887
0.010802528 -0.006760569 0.025268512
-0.010416299 -0.008253357 0.026299033
0.078485958 0.009536574 -0.017486827
0.106613845 -0.023051910 0.010918244
0.045394674 -0.035490703 0.019855648
0.034225460 -0.003656541 0.016971106
0.020109318 -0.022408471 0.045777325
-0.007461062 0.001946157 0.006051987
-0.007455304 0.001960633 0.006023167
0.061128076 0.014453438 0.001280841
0.036603473 0.002978619 0.008059016
0.073579080 -0.035104237 0.055551678
0.062216487 -0.006169749 0.006050374
0.022371272 0.015145699 0.001362022
0.018906608 0.020624956 -0.012746739
-0.024403734 -0.009031896 0.016302656
0.003749161 0.000895179 0.008367013
-0.024051886 0.000502526 -0.020558659
0.012419645 0.001111368 0.005634916
0.009651111 0.001838975 0.006156219
-0.002094261 0.005641053 -0.008249545
0.007612985 0.008378081 -0.000607276
-0.003031866 0.003965151 -0.006488961
0.009382670 0.002303262 0.008841886
0.016200470 0.002238855 0.016991317
0.008409259 0.002807837 0.005622054
0.016660502 0.002422997 0.012044434
0.009527969 0.002099016 0.007503569
-0.021422163 -0.018944291 0.026018521
-0.011911304 -0.007710998 0.013205208
-0.019957803 -0.016320005 0.027802300
0.007837555 -0.007281187 0.004255410
-0.021384673 -0.030890616 0.008345605
0.011320963 0.000462825 0.020021699
0.001580403 -0.006513596 0.000561336
0.004051171 -0.027816914 0.005427733
0.011730278 -0.017043196 0.009710463
-0.001782491 -0.044945173 0.057637580
0.003848806 0.003958694 0.001062747
-0.001464236 0.002725197 0.004620072
0.014286232 0.000788016 0.014213028
-0.017985916 -0.016007742 -0.006903720
0.055262990 0.081316359 0.072972164
-0.027020240 -0.018014282 -0.011366399
-0.041336935 -0.027967608 0.009360583
-0.013027992 -0.014040030 -0.001702047
-0.015393103 -0.014533192 0.005975044
0.003850750 0.002973487 0.006068828
-0.011063382 -0.013812109 0.028621886
-0.031660669 0.000812595 -0.001951523
-0.021494702 -0.027823795 0.052865215
-0.013953074 -0.027667474 0.042398095
0.040608563 -0.002221138 0.031177150
-0.001717905 -0.000362510 0.010671195
-0.005486288 -0.050969034 0.030367862
0.088191465 -0.011362500 0.009252599
0.034783125 -0.036257006 0.012851581
-0.024883827 -0.034888197 0.009097210
0.164948925 -0.023479497 0.019927954
0.096262902 -0.031602267 0.017184418
0.034693491 -0.036223885 0.012888614
0.011749327 -0.066986315 0.059088115
0.074902400 -0.037871510 0.021116324
0.009500423 -0.064308919 0.055232659
-0.007224485 0.001934525 0.005980944
0.076282546 -0.033140678 0.019419668
0.000206158 0.002361390 0.006045098
0.001333650 0.002280736 0.006349911
-0.018759504 -0.016671797 0.027538385
0.125247180 -0.022259032 0.041278385
0.133646309 -0.024890181 0.042747304
-0.011550302 -0.015391175 0.022338733
0.005085174 0.002028050 0.006717798
0.005086560 0.002088139 0.006593407
-0.036247391 -0.007963056 0.018065298
0.048726328 -0.057748452 0.046603777
-0.021331683 -0.026521867 0.031922627
-0.018370787 -0.001899388 0.001121308
0.002057815 0.000899899 0.007268191
-0.106475279 -0.056701396 0.061203100
0.011304697 0.000434667 0.017803436
0.005103551 0.001035078 0.008281245
0.012602816 0.000109735 0.013043164
0.009816962 0.000253949 0.009732524
0.003028605 -0.031678595 0.059576504
-0.060893070 -0.070705533 0.055449188
0.035382196 -0.060731135 0.052207254
0.009440766 0.002958568 0.004303456
0.009264321 0.003302212 0.005043837
0.009367081 0.003139551 0.004698423
0.009326969 0.003236999 0.004916727
0.006879605 0.002763674 0.005840459
-0.006467949 -0.006357130 -0.006803892
0.007759129 0.003339753 0.007117700
-0.019191697 0.001339517 0.004247359
0.005572324 0.006316036 -0.004516060
0.008862182 0.023005413 -0.005337497
-0.000648844 0.014277577 0.002426963
0.009095824 0.003927001 0.004064676
0.010178163 0.002009622 0.001966928
0.007400047 -0.002270857 0.000010914
0.016065758 0.000714583 0.016201718
0.074803628 -0.028773051 0.014812692
0.049743205 -0.037851002 0.021583093
0.026529843 -0.023354009 0.005001098
0.020668637 -0.037256777 0.014996652
0.020001758 0.000416479 0.023774279
-0.002712491 0.001793731 0.006695860
0.020255344 0.009687158 -0.004967428
0.030642215 -0.002281094 0.012845418
0.008812600 0.006327733 0.001005179
0.020853205 -0.019460361 0.037099559
0.198653251 0.011975877 -0.005230619
0.024225190 0.012006527 -0.008951031
0.087298192 0.010579715 -0.005831081
0.017835645 -0.006597828 0.032350156
-0.004694702 0.003123677 0.004165299
0.010073300 -0.055309866 0.088371724
-0.005645033 -0.050812557 0.030350171
0.034828488 -0.009065135 0.023578690
-0.083622955 -0.029253406 0.053773906
-0.012080448 -0.004114401 0.009234997
0.028953854 -0.062438663 0.115444802
0.064152673 -0.017676163 0.045399033
0.021728046 -0.017062847 0.033338651
0.048878428 -0.106558017 0.111194529
0.010631359 -0.060635470 0.096777901
0.006791872 0.003351094 -0.000817234
-0.007709797 0.012201045 0.006616356
-0.008342524 0.012651257 0.006921386
0.001539636 0.016309742 0.000274582
-0.001337223 -0.006473029 0.002607125
0.003139751 0.002719670 0.005108285
0.009693053 0.001962702 0.006494074
0.008568956 -0.009104588 0.002425266
0.008474115 0.002214539 0.006346475
0.004786749 0.012567645 0.000123191
0.002598322 -0.005215128 -0.000580071
0.003403781 0.018383149 -0.009330291
0.009106824 0.003603710 0.001281980
0.002172561 0.001505400 -0.000875363
0.006532123 0.014046201 -0.005619510
0.006774803 0.013356440 -0.005244581
-0.004115385 0.014703132 -0.008917946
-0.023507413 -0.008085812 0.018426836
-0.000690428 -0.025997844 -0.000513730
-0.018135538 0.001453771 0.004171113
-0.020972297 -0.002470186 0.017826831
0.002637735 0.009539382 0.002894412
0.001522020 0.016483804 0.000560178
0.001446238 -0.005854147 0.035149008
-0.002217552 0.001095395 0.007622171
-0.001252333 -0.014605884 0.042406034
0.002815217 -0.004106597 0.029453939
0.004858559 -0.006693117 0.020747745
0.313219428 -0.094140522 0.221179023
0.052795079 0.026934562 -0.034987696
0.130945787 -0.035378072 0.032031916
0.074578747 0.027379958 -0.061709918
0.037256841 0.025384020 -0.050887030
0.119865030 -0.022764197 0.036634047
0.157583356 -0.000618878 -0.011533943
0.030008929 -0.002110616 0.013560882
-0.000732463 -0.000237819 0.009420048
0.018961355 -0.009104795 0.034173135
-0.007339146 0.002086017 0.006148927
-0.007315027 0.002206257 0.006243463
-0.007122122 0.002587808 0.006608251
0.004928139 0.002388039 0.006451163
-0.002106369 0.000155838 0.008843397
-0.007249061 0.001277906 0.006980709
0.008496616 0.003943165 0.004900746
-0.019562010 0.008264357 0.011438655
-0.016431006 -0.031431161 0.048419930
-0.025705501 0.003775330 -0.001017452
0.007575143 0.002895688 0.005447346
-0.028476171 -0.019263379 0.021425966
0.004376361 0.000822103 0.005563725
0.003684668 0.002501456 0.005996192
-0.000755750 -0.000191043 0.009230487
0.020949187 -0.009828866 0.011599972
0.022369048 -0.013460198 0.027910030
0.006472173 -0.064973205 0.061960220
-0.020717489 -0.010879750 0.034062050
-0.008021982 -0.016046857 0.025048465
-0.053832978 -0.030931566 0.032542013
0.030080954 -0.038835704 0.022694116
-0.013033678 -0.027160589 0.043574717
-0.042206977 -0.048920356 0.009286916
-0.037585773 -0.052078832 0.063004792
0.003861242 0.005982642 0.035275247
-0.000081766 0.012402674 0.004388555
0.007494408 0.003033779 0.005525667
0.021568069 -0.026742054 0.066807583
-0.045468792 -0.024762526 0.026556527
0.014692729 -0.007927306 0.034095883
-0.075571708 -0.066715658 0.041166518
-0.017155809 -0.002202883 0.015116678
0.033177350 -0.040862504 0.055454511
0.036070839 -0.041485563 0.056369729
-0.004192840 -0.012268918 0.008062704
-0.020210398 -0.000001116 0.006639093
-0.006716365 0.010324552 -0.006895240
-0.018089304 0.007777778 0.010606572
-0.026699457 0.013753410 0.002057752
0.000791270 0.000857273 0.007978911
-0.023424640 -0.007704096 0.017530782
0.008584126 -0.012955758 0.032146424
0.004212681 0.017659945 0.020221269
0.009590279 0.004982022 -0.006543381
0.010818602 0.015547264 -0.010168626
0.002729992 0.000566078 0.004066171
0.013377722 -0.013535698 0.026197428
0.008046648 0.002547188 0.006474888
-0.016212258 -0.020449944 0.032555740
0.009580074 0.018336479 -0.009278329
-0.028882820 -0.006478721 0.020108530
-0.000364945 -0.039343599 0.073583394
0.023164129 0.029217765 -0.018425191
0.039143313 -0.002716570 0.010748650
0.005164355 -0.004938096 0.009745835
0.023553748 -0.015698155 0.000862482
0.012943061 -0.039689239 0.021410521
0.026980700 0.000997986 0.013109475
0.003636295 0.002524426 0.006142604
0.058467146 -0.038864385 0.022000981
