ply
format ascii 1.0
element vertex 550
property float x
property float y
property float z
end_header
0.462158054 -0.458405495 1.108327985
0.239709362 -0.609462678 0.812590837
0.254263401 -0.508144379 1.013234019
0.108597115 -0.642434299 0.867000818
0.165253446 -0.671221077 0.903072357
0.056062821 -0.680677474 1.065979481
0.073694624 -0.553321302 0.856243849
0.074841909 -0.536853671 0.877474129
-0.529626429 -1.064397216 1.500457525
-0.703579307 -0.369740278 1.149526119
-0.193756655 -2.855655670 2.182753563
-0.382685065 -1.088270068 1.529697776
-0.089101754 -0.004820544 0.262818426
0.203668892 -0.555574238 0.878702641
-0.046074927 -0.234309435 0.669935405
-0.241073564 -0.653823555 1.397515893
-0.289329171 -0.663479805 1.600306034
-1.058243275 -0.161565483 0.577682495
-0.230253726 -1.173072815 0.633188486
-1.035218596 -0.602626741 1.507399321
-1.403662324 -0.176142231 0.390411258
-0.620073974 -0.604959428 1.445439219
-0.668289244 -0.111461423 0.515645564
-0.882590532 -0.840055406 1.824326634
-0.773078620 -0.271556109 0.609547317
-1.380188704 -2.943820953 2.537915468
0.030511979 -0.051150937 0.331321090
0.920134306 -0.619114041 1.380481958
0.076291271 -0.086364880 0.381463110
0.937020898 -0.422905028 0.849762678
1.042118073 -0.424111634 1.000000000
0.502007723 -0.277702361 0.676169217
0.349506646 -0.493241787 0.950563073
0.234138355 -0.517044425 0.867522955
-0.028110452 -0.974654198 1.346028209
-0.167928770 -0.924394429 1.383124590
-1.797354221 -3.123189688 2.388252497
-0.003781230 0.000008858 0.232891589
-0.945188761 -0.109111629 0.643431902
-0.083917886 0.090686120 0.236715674
-0.197168693 -0.708858132 1.037354112
-0.316468358 -0.713715076 0.998046100
0.131341800 -0.545849979 0.954177499
-0.415570766 -0.273384452 0.497602135
-0.589599967 -0.443613201 0.788997054
-0.134527132 0.062388964 0.186371714
0.214358047 -0.126482204 0.482952297
-0.000485113 -0.033408560 0.238833338
-0.308478862 -0.907273889 0.769235373
-0.141229540 0.342242271 0.398060918
-0.005950789 0.000323612 0.262039870
0.075727969 -0.059112594 0.334202319
-0.023088858 0.020868637 0.237197161
0.212114215 -0.240912706 0.671349466
-0.026437715 0.021635868 0.249405488
0.181039646 -0.707332790 0.966882110
-0.084880233 0.089627817 0.235794798
-0.836766303 -0.097775549 0.562061191
-0.135461211 0.330109268 0.385128587
-0.602128446 -0.199203879 0.653161585
0.104662985 -0.755716860 1.021667719
0.010520482 -0.374210447 0.412066370
-0.005216104 -0.002110851 0.253647387
-0.064739391 -0.034825370 0.195453316
-0.672621012 -0.529965222 0.927819967
0.167466775 -0.667258024 0.903197408
-0.267677933 -0.636618733 1.049911499
-0.105532795 -0.659814239 1.186859727
0.160679907 -0.447637469 0.704995751
0.297365606 -0.033975150 0.401182115
0.135763004 -0.114473760 0.365636528
-0.890571177 -0.102300368 0.596239269
0.001603581 -0.032054398 0.220314339
-0.123524092 -0.127182692 0.050931796
-0.006364521 -0.001616320 0.256883442
0.226196244 -0.455521643 0.892866731
0.300574601 -0.423966855 0.831662834
-0.846879482 -0.398461074 1.000288367
-0.648379624 -0.276073515 0.703438103
-0.069689833 -0.290726930 0.822498322
-0.167364448 0.000516404 0.240880907
-0.122591935 -0.485145867 1.035213947
-0.449485242 -0.451736629 1.066676617
-0.936713994 -0.180691913 0.573984265
0.181047618 -0.500080645 0.788842559
-1.378811717 -2.108306885 0.725018382
-0.739207864 -0.252007604 0.813447773
-1.013129592 -0.153661340 0.454938531
0.091521837 -0.499785691 0.869879544
0.102960743 -0.395088285 0.712516010
-0.935590327 -0.386692256 0.662596464
-0.867401004 -0.257191181 0.552201331
-0.143636733 0.041480936 0.210118338
-0.346563548 -0.817987263 1.347862244
-0.336092949 -0.350546122 0.823664546
-0.090499505 0.098587424 0.259978831
-0.789801717 -0.275945723 0.874254584
-0.564000189 -0.145793527 0.518948317
-0.799434900 -0.335762441 0.571858644
-0.757566929 -0.501751721 0.818765223
-0.294657856 0.110232398 0.240255266
-0.628550529 -0.224962607 0.500006080
-0.814434350 -0.506474853 0.878585815
-0.888313651 -0.256357729 0.561584949
-1.112262726 -1.397121906 2.030637264
0.057419144 -0.070902877 0.355707914
-0.004429976 -0.001679845 0.235146508
-0.175037429 0.029549912 0.231659770
-0.087121122 0.095354453 0.252919257
-0.156640202 -0.014037204 0.286851346
-0.230020866 -0.391637206 0.306688547
-0.130363896 -0.048458334 0.321888149
0.143108964 0.023203904 0.146251723
0.082776733 0.025802905 0.257365644
0.154188290 -0.040470928 0.156633645
0.091775417 -0.076292180 0.422261804
-0.197794482 0.160788819 0.248263523
0.087647647 0.027902005 0.276870102
-0.185115859 0.052773837 0.268905967
-0.293186247 0.053925980 0.240255132
-0.006470718 -0.005899256 0.266221941
0.089132249 0.030294953 0.288317919
0.034386151 -0.103163309 0.261180520
-0.173234299 -0.000965133 0.295341760
-0.163905859 0.012527877 0.252377689
0.092510760 -0.075889967 0.425612599
-0.077165119 -1.256255150 1.022388101
-1.006726742 -1.011057615 1.504754305
-0.249855116 -1.325992107 0.687190592
-0.426380992 -1.021466613 1.712764978
-0.956250191 -0.468278468 0.715803981
-1.419154286 -0.273346782 0.872621834
-0.114808649 -0.051670574 0.321930021
-0.245565131 -1.276541352 0.667517841
0.114459686 -1.328017116 0.826491296
-0.210764527 -0.784603357 1.170513391
-0.671239555 -0.391886145 0.657444239
-0.390239775 -1.570203066 0.476100653
-0.101687826 -0.000199901 0.284163982
-1.318054199 -0.153538153 0.872035682
-0.177408010 -1.146520853 1.298375010
-0.530218244 -1.091285110 1.513190031
0.101517528 -0.521658421 0.414763033
-0.485073894 -0.255505651 0.625513554
-1.205428958 -0.241385549 1.504968286
-0.191462249 -0.003203116 0.284970373
0.034848448 -0.121556483 0.308413982
-0.115575403 -0.048064634 0.326289564
-0.054961167 0.000024761 0.124931589
-0.145425573 0.128415391 0.198176816
-0.087717302 0.093909375 0.250378430
-0.049690530 0.104192354 0.153651252
-0.184634700 0.086815543 0.240224510
0.201998010 -0.118159838 0.248074546
-0.007130346 0.146669611 0.201123238
-0.128865555 0.122112542 0.326809585
-0.109460674 0.105930619 0.164421126
-0.169430181 0.082742929 0.224637195
-0.198481679 0.008261541 0.262859285
0.037491292 -0.056814834 0.359191239
0.037727032 -0.056271434 0.358816117
-0.147642419 0.069894321 0.211506158
-0.226333231 0.490651190 0.591698527
0.269719005 -0.336522341 0.609644890
0.064734794 -0.558888137 0.754598558
-0.071309462 -0.225512609 0.148576692
-0.192297116 -0.207482859 0.397818118
-0.453613937 -0.126249596 0.060509294
-0.452571243 -0.669184983 0.087858178
0.125532299 -0.324060947 0.505796313
-0.627982914 -0.323289871 0.494761288
-0.059298933 -0.238870218 0.651917517
0.407589227 -0.254616886 0.535956860
0.166314527 -0.462383389 0.722270310
0.224607393 -0.133187085 0.504425645
-0.009254668 -0.040271118 0.292231739
0.034482297 0.006557353 0.024243101
-0.530987918 0.181308046 0.425964534
-0.029859107 -0.167522848 0.464818150
-0.546091974 -0.854593158 0.303506434
0.231497258 -0.137972116 0.511484206
-0.273795098 0.099292830 0.238386542
0.111541115 -0.415906638 0.480012953
0.265311211 -0.466264248 0.702704191
0.272581816 -0.462066710 0.653698444
0.055221416 -0.364419580 0.588983297
-0.159305990 -0.001546883 0.290496886
0.222641274 -0.755602062 0.104661167
-0.536078572 -0.134231240 0.336824566
-0.177859873 0.003594015 0.250989228
0.178099304 -0.277104259 0.399238288
0.048823074 -0.544029832 0.777443647
0.180374309 -0.160077348 0.502468526
0.305084884 -0.529363096 0.741284072
-0.189567149 0.078646027 0.230146095
0.026860794 -0.336634308 0.816815853
-0.041580979 -0.530728936 0.423633903
-0.096873820 -0.046050534 0.272148877
-0.145135611 -0.032073710 0.356170952
-0.587828457 -0.761321902 1.085106492
-0.493089378 -1.817243814 0.532300353
0.117480814 -0.493229151 0.851854086
-0.342179209 -0.823911488 0.635188580
0.402451247 -2.772509575 2.150382519
-0.087115504 -0.013277172 0.260866821
-0.532557786 -1.084748864 1.497201085
-0.983632922 -1.224584818 1.761724472
0.021480760 -0.422764271 1.006874084
0.220187768 -1.542674661 1.194568157
-0.223751932 -1.386662364 1.650279164
-0.461082846 -0.961340189 1.329108953
-0.679232538 -1.556108713 1.177688479
-0.224108666 -1.136662841 0.596278310
-0.622215927 -1.440199018 1.098852873
-0.303183794 -0.565716326 1.261796594
0.507482886 -0.520001113 1.229850531
0.918774545 -0.431371033 1.587246537
-0.695348799 -1.630732536 0.858939588
2.279561996 -1.984502435 2.889526367
0.421874285 -0.453822911 1.343816519
-0.312377810 -1.948917389 2.312388420
-0.356020510 -0.795505047 1.364439368
-0.393086851 -0.858388960 1.589665771
0.532370508 -0.153839782 0.412552148
-0.129919648 0.065016359 0.187341586
-0.232407123 0.045608528 0.201369554
-0.180445865 0.036775261 0.168412521
0.109928809 -0.131515756 0.250351965
-0.466362238 -0.428118169 0.648319662
0.036274403 -0.269374132 0.630328894
-0.099099979 -0.384281933 0.340686888
0.207852066 -0.678760827 0.709411860
0.428735822 -0.460226417 0.786907792
-0.605293453 -0.291247070 0.578965485
-0.101548128 0.245817617 0.272138476
-0.830508530 -0.154867828 0.361571074
-0.120449990 0.279281408 0.304961890
0.099667251 -0.527898371 0.908615589
-0.669620454 -2.045490026 0.579603732
-0.016014233 -0.779163718 1.147802949
0.026849935 -0.607421398 1.134268284
-1.329432726 -0.220676303 0.832590818
-0.026223252 -0.905233860 1.244783759
-1.250540018 -0.209227517 0.783139288
-0.275742263 -0.798167884 0.864320457
-1.243258357 -0.204418227 0.783390343
0.300638825 -0.431685060 1.011252046
-0.817876220 -0.272401720 1.032178521
-0.130664736 0.111670002 0.177315742
-0.109116025 0.197981298 0.231748864
-0.074492417 -0.035796642 0.223901853
-0.357386500 -0.077395886 0.493452847
-0.092003882 0.238105193 0.289369971
0.126327842 -0.505460322 0.658885181
-0.088809520 0.234021723 0.283639252
-0.182095692 0.007384176 0.242171705
-0.082913943 -0.099733941 0.381234258
0.489904881 -0.136904553 0.826881230
-0.464958787 -1.017872691 1.403027296
-1.396480441 -0.821945310 1.454801083
-1.073631048 -0.314616680 0.688429832
-0.902688503 -0.377352685 0.640466392
0.894419491 -1.008330941 1.663706183
-0.213343948 -0.853244483 1.156810760
-0.614944935 -1.853261352 0.512826264
-1.295163274 -0.192908615 0.706882477
-0.023626702 -0.774888575 1.146022558
-0.174275294 -1.005408049 1.790629745
0.151723430 -0.625259280 0.843674064
-0.303124100 -1.095867753 1.495505214
-0.751424193 -0.461569756 0.824586570
0.731670082 -0.089678653 1.016911745
-0.268580496 -1.082999349 1.446688175
-0.588506877 -0.826737523 1.960173011
-0.430472732 -0.239541754 0.715976477
0.074304298 -0.058465037 0.319874644
-0.146246865 -0.048360068 0.342294782
0.279341489 -0.169901088 0.651295245
-0.660188615 -0.150585353 0.830073059
-0.028124224 0.022704840 0.260805875
0.179633200 -0.386718035 0.455221891
-0.021789977 0.023900535 0.244064853
-0.202453837 0.033324238 0.261565864
0.277090013 -0.993763089 0.132148400
-0.022778044 0.024650259 0.249110907
-0.162611440 0.075106993 0.238379464
0.077847801 -0.063747883 0.362003714
-0.144820914 0.053785704 0.224959195
-0.160899639 0.015471243 0.234051257
0.493421704 -0.728921533 1.403551459
0.067660034 -0.079245269 0.342079341
-1.350774646 -8.648024559 9.480188370
-0.594368637 -1.815703511 1.621220231
0.627484262 -0.268371224 0.711546719
0.032894544 -1.084915042 1.639460206
0.532399476 -0.698280990 0.938773870
-0.104111724 -0.008710444 0.293535888
-0.248753995 0.086376563 0.335519701
-0.095799707 -0.007750074 0.275778800
-0.230074465 0.081849784 0.314481467
-0.844929218 -0.135070503 0.639743745
-0.900531650 -0.499564767 1.053107023
-0.022159295 0.017174194 0.230645120
0.087112598 -0.282043785 0.514363706
-0.026190402 0.052807357 0.048015632
-0.113438316 -0.003041280 0.188960090
-0.052024156 -0.138988316 0.006350634
-0.060890209 0.091883555 0.060153306
-0.046760764 0.073992603 0.099061035
-0.029197855 -0.031251729 0.004160977
0.051005740 -0.062053058 0.066388473
-1.385144591 -0.736748755 2.118400097
0.365672499 -0.467495918 0.852339387
-1.783413649 -0.257849813 0.957738161
0.412747473 -0.536941409 0.987299323
-0.322723389 -0.846933782 1.804878831
-0.911591351 -0.264895409 0.953748882
0.070220686 -0.090795882 0.395146728
-0.134575397 -0.436123163 1.162245989
-0.898026943 -0.333059341 0.713282883
-0.368399382 0.140598178 0.465706021
-0.113752052 -0.518911302 0.358730227
0.055522624 0.067651920 0.138721883
-0.032113079 0.046951868 0.148879588
-0.277986616 -1.606956840 1.909423709
-1.226351500 -0.562922478 1.453376174
0.332102805 -1.551259041 1.756209016
-0.312057346 -1.121033788 2.030117512
0.135070115 -0.726021647 1.260764003
-0.012827920 -0.049225174 0.190622464
-0.187375620 0.055722978 0.265791535
-0.016744444 -0.052262515 0.207985789
-0.413347155 -0.139991775 0.116199791
-0.122515529 0.101551943 0.167714462
-0.091839276 0.101638407 0.124312438
-0.114612088 0.249165103 0.313454777
-0.122720800 0.205080703 0.243756533
-0.374294490 -0.062428273 0.507921636
-0.141311184 0.115805998 0.185249567
0.135052741 0.045859460 0.109921388
-0.143603846 -0.029248981 0.033828687
0.108385578 0.031761680 0.056104165
0.326943934 -0.528507650 0.938578725
-0.382145971 -0.836137772 1.836363554
0.019357366 -0.023819972 0.128991917
0.252751976 -0.093087450 0.222456336
-0.318882555 -1.111254573 1.749809861
-0.019306393 -0.938549638 1.419776082
-1.015137196 -0.114304163 0.450336576
-0.192382991 0.039859623 0.242072061
-0.180565134 -0.753057182 1.591652751
-0.003538047 -0.037462432 0.240186498
0.245028794 -0.027719520 0.326445520
-0.105318137 0.057991233 0.166008994
0.005801583 -0.117471389 0.393706024
0.008905109 -0.106447920 0.359954417
-0.392842412 -0.175816268 0.348193109
0.067678519 0.120184816 0.591346800
0.194520131 0.087475404 0.243626878
-0.049979471 0.285877675 0.404486954
0.127964541 0.029278666 0.134808779
-0.450698733 -1.198620796 1.325193644
0.459642559 -0.096767165 0.790590644
0.521057367 -0.905699015 0.357871413
-0.777173638 -0.367030323 0.720442951
-1.151984692 -0.784455240 1.587459564
-0.017324558 -0.128359124 0.231822148
-0.119392425 -0.004254277 0.330039531
-0.079959303 0.016356580 0.060850587
0.095799796 -0.025176866 0.091409490
-0.066896528 -0.106850907 0.098583825
0.053929705 0.111918949 0.200692460
0.036672276 -0.032550428 0.213392809
0.068065219 0.054001112 0.160521090
-0.091809593 0.150369436 0.164806187
-0.075649746 0.063746490 0.202494234
-0.075889893 0.065554291 0.202595860
-0.101587258 0.088224679 0.151350498
-0.064376585 0.108654596 0.220978081
-0.064749539 0.171558037 0.226803079
-0.072638623 0.175614402 0.215382740
0.275485426 0.139175206 0.354398310
0.245292351 0.055401921 0.297885865
0.247183740 0.185745820 0.442107588
-0.195819527 -0.007190062 0.474013656
0.246743292 0.059358373 0.302549809
0.232092112 0.156554833 0.436619490
0.184403285 0.433189750 0.321848124
0.200397938 0.126173705 0.504917979
0.211079404 0.139950961 0.395223886
0.073743336 0.050593574 0.291695684
-0.139938444 -0.249117494 0.057337239
0.271584630 0.133881956 0.360140592
0.077791005 0.059960444 0.334307909
-0.188449085 0.077319533 0.282701135
0.003920805 0.128009319 0.199604869
-0.016399132 -0.045870304 0.340620846
-0.212666914 0.077048749 0.123383656
-0.010031692 -0.058972463 0.350505888
0.212414756 0.131052136 0.533361077
0.229367331 0.164362252 0.442408115
0.055446096 -0.237470046 0.163661361
0.085049808 -0.111451805 0.224149510
-0.189807937 0.219281927 0.093820088
0.059009146 -0.170165986 0.237752214
-0.122730650 -0.163949832 0.244647995
-0.015195986 -1.540778756 1.346825957
-0.194261432 0.012730128 0.261576474
-0.004364890 -0.220240220 0.274266869
0.083414637 -0.277764708 0.230304390
0.029590966 -0.209613949 0.243745193
-0.012565036 -0.167399451 0.192790478
0.115279995 -0.110962376 0.237757042
0.196385041 -0.114304326 0.242512614
-0.020614089 -0.191725120 0.217967823
0.235567048 -0.040413048 0.101221561
0.294925094 -0.096100256 0.229300529
-0.041855831 -0.401062518 0.221105948
0.064910352 -0.055661522 0.244754151
0.296412379 -0.125368461 0.186628997
0.198253334 -0.239889145 0.345153540
-0.066256665 -0.279085934 0.320035011
0.099090576 -0.014431112 0.048266981
0.018741664 -0.073772810 0.042399582
0.141759455 -0.076204069 0.166471973
-0.071281604 0.087801859 0.091457523
-0.054082092 0.073107280 0.099811941
0.208933339 -0.071766816 0.520429552
-0.001087479 -0.165474057 0.545149863
-0.466433048 -0.672822237 0.111617856
-0.377567142 -0.225089967 0.400225282
0.098720454 -0.086512767 0.251813442
0.048229545 0.004347251 0.091214538
0.113712564 -0.058628228 0.208689049
-0.308578283 0.033032916 0.299040675
0.105415359 -0.209202021 0.201847479
-0.616636217 -0.611267090 1.434919357
-1.161538482 -1.249235988 1.295943618
-0.983747959 -0.410186827 0.690434277
0.035734538 -0.094292626 0.406462252
0.193106413 -0.120220043 0.129822850
0.019551987 0.235548586 0.084431484
0.299113691 -0.113339081 0.152503908
0.406203181 -0.152117312 0.201477945
0.292794108 -0.123233683 0.161159769
0.058167480 0.081676312 0.155000135
0.146161154 -0.020563276 0.168043092
-0.286398172 -0.772199154 1.676240087
-0.920984626 -0.013337059 0.550862372
-0.990465581 -0.189141780 1.234829307
-1.252820611 -0.985181928 1.732611060
0.256718814 -0.116302721 0.192635775
0.124031775 -0.042708784 0.050303020
-1.485470414 0.537219703 1.082745910
-0.012208032 0.023174481 0.008655447
0.234745711 -0.057179980 0.089490257
-1.576711416 -0.301295698 1.006904960
-7.671573639 -1.254402161 2.474940777
-1.639031887 -0.551539779 1.255854964
-0.428921223 0.657354772 0.731927633
-0.376357913 0.590189815 0.648768485
0.149962455 -0.038567878 0.050801221
-0.138330847 0.245945692 -0.000443234
0.080961637 -0.077027731 0.056028027
0.320985675 -0.104271539 0.176421613
-0.034353826 -0.071491458 0.170525596
-0.112043925 -0.005720065 0.216208637
0.609671175 -0.248728409 0.311181813
0.016613429 -0.283834934 0.523217499
1.211585879 -0.875845253 0.709654570
-0.142770201 0.146977767 0.180385962
0.408780694 -0.140223846 0.360832304
0.731196880 -0.325057566 0.284917831
-0.002755007 -0.022965901 0.258314490
0.209715471 -0.034973290 0.091784678
-0.225921199 0.134907812 -0.032409441
1.396250606 0.081502795 0.489103168
0.402394086 0.013870757 0.139657110
0.610607505 -0.021754222 0.201510668
0.289352894 -0.045784570 0.130200326
0.271296650 -0.042596154 0.119927898
0.441438556 0.240741521 0.194700241
0.083338678 0.023610301 0.122398280
-0.031114278 0.066503182 0.041848857
0.054746222 -0.021619661 0.113162756
0.249080226 0.111484423 0.211332932
0.267758876 0.133145779 0.118079714
0.069168046 0.041535255 0.122242190
0.054279048 0.062067486 0.120927930
0.288601220 -0.143994674 0.137707084
0.712945938 -0.280743271 0.350410819
0.265546888 0.125825331 0.210182667
0.370384395 0.093848206 0.148651689
0.307916015 0.156330884 0.135851845
0.103377715 -0.033719566 0.125666291
0.254851997 0.116207965 0.211799800
0.055133455 0.062851720 0.121187650
0.260385722 0.128811687 0.114806764
0.034684207 -0.028601978 0.082143389
0.299636483 0.154400945 0.134424582
0.637139440 0.317684710 0.607512772
0.282913148 -0.166426539 0.258725256
0.430143476 -0.224971160 0.235495046
0.405292004 -0.175561234 0.212130815
0.317396879 -0.050879445 0.143452689
0.291019022 -0.123045199 0.247890249
0.407445371 -0.211132422 0.225081488
0.519283772 -0.271003723 0.284568906
0.424022853 -0.177961498 0.159077883
0.154091492 0.074666381 0.250964493
0.368016601 -0.234362915 0.344888359
-0.120214343 0.240839079 0.027207315
0.125452146 -0.108160041 0.179125145
0.041513175 0.161480531 0.132154331
1.018098116 -0.602478206 0.733248651
0.161672503 -0.116970785 0.209474251
0.392260343 -0.117465094 0.226905510
-0.534781873 -0.359989166 -0.160114065
0.387293190 -0.074937508 0.200732827
0.023634138 -0.062685274 0.165564090
-0.340270936 -0.210521281 0.137940928
0.247639805 -0.188628703 0.242524371
0.416249782 -0.124767207 0.325492829
0.767144740 -0.377302855 0.305365026
0.612273216 -0.188162640 0.266786456
-0.205533504 0.189986229 0.241774231
0.459411979 -0.306194872 0.252348959
0.409642279 -0.139930695 0.477184415
0.748163879 -0.474366248 0.394638598
0.554708302 -0.289556444 0.504218698
0.552908003 -0.130763113 0.269891977
0.113647051 -0.036762469 0.120918803
1.754062772 -1.076437473 0.946941674
0.086967170 0.023903606 0.070478357
0.072968915 0.022998527 0.067768596
-0.179748893 0.126040712 0.131380007
0.070984460 0.019104538 0.066795461
0.189973965 0.066343337 0.069548607
0.072435327 0.020408401 0.070259705
0.072805047 0.020856457 0.071130835
0.385126472 -0.023217604 0.112429783
0.258378565 0.009073176 0.080608137
0.139923930 -0.015154125 0.155602470
0.382988930 -0.020714367 0.111488029
0.170705810 0.004433421 0.180200219
-0.180804625 -0.097437762 -0.013385433
-0.370648175 0.089578003 0.285996199
0.218243718 -0.137572572 0.276152492
0.389055967 -0.235660180 0.364257455
0.229785889 -0.172932118 0.207081273
