ply
format ascii 1.0
element vertex 1271
property float x
property float y
property float z
end_header
1.703481197 -0.839314342 -0.227564871
0.387724727 0.015221749 -0.819751263
3.682645321 0.734627724 -24.226400375
0.063824877 0.105824783 -0.674277604
1.632575035 -0.799187958 1.219766021
0.513807595 -1.757956028 -0.522916377
0.495865136 -0.375499517 -0.273181587
0.084264278 -6.631688595 0.111327350
0.003884242 0.568728566 -0.402630299
2.057714701 0.133093059 -0.224626601
-0.818201184 -5.319121361 0.976839542
0.315342516 -0.144593850 -0.411716193
0.728405476 0.157071874 -0.356895298
0.907534242 0.292729497 -0.621817112
-0.166927382 -0.725080609 -4.135555267
5.559462547 1.436704516 -22.349893570
-3.214815140 -0.627090931 0.313118041
-3.325111389 -0.218970373 0.214966491
1.098617315 -1.325603962 -0.284108222
-0.590333283 -5.455401897 0.762686849
1.619913816 -3.472316027 1.160485625
-2.332937717 -2.315152407 0.356764734
-0.538883269 -0.647612154 -0.213251039
1.948813200 0.831968784 -0.653400183
-0.683402836 0.931704402 -0.070370696
0.022943998 0.506077588 -0.316995382
-0.119932920 0.747061491 -0.427100450
-0.040343266 0.578249097 -0.707650185
-0.635578275 0.665152192 -0.333988786
0.015339671 -0.164451480 -0.238265723
-0.396552831 -0.444267690 -0.518833935
0.026071675 -0.263806611 -0.238479525
0.263811052 -0.897078872 1.373551726
-4.699488163 1.470387578 0.238981366
0.819518030 -1.284336805 -0.315860450
-0.317409128 -1.765103579 -0.265190959
-1.424056649 0.742110074 -0.022412272
0.084435962 -1.832280993 -0.583506465
1.755519867 -3.790990829 1.248263836
-0.131551355 -1.683863282 -0.268558562
0.069077231 -0.339408040 -0.266418934
0.125953630 -1.330164194 -0.643368602
-0.130217612 0.806012750 -0.335288554
-0.067039788 0.694032609 -0.571327150
-0.109770641 0.817952633 -0.358243555
-0.016122209 0.706988573 -0.636604965
0.125512093 0.801369131 -0.259442270
-1.304286003 -0.680083930 0.004148290
-3.153865814 -0.638321042 0.305430532
-1.942315340 0.117068961 1.415597200
-2.614000797 -2.221372604 0.286067992
-0.390928119 -1.904978514 -0.235729635
-0.962280631 -0.265112400 -0.315988213
-0.291852236 -0.516682088 -0.366634041
0.644155920 -0.395535588 -0.710066795
-0.734818757 -0.633169353 -0.301555306
0.331011683 -2.814138174 0.812091768
-2.015469074 -0.521848977 0.257656991
-1.390962124 -0.032057993 -0.719536006
0.504931092 0.244934514 -0.896044433
0.275500804 -1.637866259 -0.259449363
0.180534765 0.275106341 -0.249274462
-0.112585001 0.112178460 -0.246036202
-2.476694107 -2.040966749 0.259336710
-0.613357604 -5.419717312 0.978690565
-0.421354324 -1.819390059 -0.765992582
2.734150410 3.109635353 -0.067848966
0.502217710 1.224887013 -0.428447306
0.550277472 1.491608262 -0.328506887
0.562275290 1.182410121 -0.085897960
0.326048404 1.230446815 -0.370174259
1.492250443 2.098741293 -0.194922477
1.912167549 0.662148595 -0.206652373
2.614858150 -0.092449374 1.116891384
0.024427768 -1.690591931 -0.259330750
0.459879816 -1.184757352 -0.225247949
-0.730112255 1.088644385 0.014891328
0.373387873 -0.317795068 -0.181179866
-1.371687293 -0.188841566 -0.562133372
-0.142126933 -1.408053279 -0.537907362
0.323107004 -2.460349798 -0.713024974
-2.202068329 -3.014256001 -0.142302781
0.332398593 -0.176328421 -0.633966386
-0.047085632 0.137565508 -0.245007470
2.253169775 0.862982392 -0.231741667
0.030695323 0.276853710 -0.239540920
0.409133315 0.097332768 -0.700119853
-1.605274916 -0.718615174 1.097680449
1.302827239 1.515393972 -0.453933626
0.670025647 1.683268070 -0.398552597
3.090157032 1.044975042 -0.481532484
1.522368908 -0.987323999 -0.489411145
0.585878372 1.756579280 -0.046644591
0.082751311 -0.214294225 -0.242953807
-3.415895939 0.186759591 0.563154340
-3.190816879 2.702821255 1.224032521
0.000666907 0.375057101 0.179614812
0.048481498 0.682291150 -0.014860432
-2.311904907 -1.936450958 0.270305723
-0.170556620 0.345698088 -1.364100337
1.442705631 -1.003600597 -0.067027919
-0.033798292 0.314444810 -0.243211538
-0.013321849 0.609363496 -0.235363543
-0.058954496 0.292393744 -0.244754106
-2.562090397 1.850669384 1.340315580
-0.176027641 0.256981671 -0.241226941
2.795380116 -1.983379960 -1.494824409
-0.774961054 0.164771557 -3.095292330
0.349944979 -0.198185503 -0.387554437
-3.391159058 -0.336316168 0.127763852
-0.850371242 -4.276799202 1.025865436
-3.246386528 -0.342439681 0.209881872
-0.594979823 -0.568380177 -0.271858007
-0.056298554 0.588213861 -0.379757315
-3.510095119 0.355107427 1.123837352
-1.792856812 -1.404930234 1.055097580
-2.514822960 1.826701283 1.309536338
-0.263316751 -2.273477077 -0.687911391
-5.138648987 -0.604840517 1.036840796
-3.084522486 -0.662988126 0.311558485
0.021935143 -0.017609812 -0.182092309
-3.844182253 0.734011889 1.177170634
-1.341112852 -0.186250567 -0.545691729
-3.286182880 -0.186453521 -0.003598760
-2.277122021 0.766956866 1.157549500
-5.393535137 -1.738666058 0.837096453
-8.041966438 2.714151144 1.428922772
-1.191310883 -1.562649012 1.376391053
-1.868296146 1.424936056 -0.845158696
-0.710318744 1.298717976 0.027799390
-0.866272748 -0.480278015 -0.549409926
-1.145178318 -2.224189281 -0.507623434
-3.887628794 0.737191319 0.583000362
-2.649210691 0.162093401 -0.754916310
-5.237665653 -1.474950910 1.008799076
-2.395895481 0.146048114 -0.524225950
-3.242950439 -0.357127666 0.219344735
-0.503308356 -1.667988539 -0.085322849
0.106678367 0.049941096 -0.167611733
0.763833284 1.475667477 -0.096338131
0.472066462 -1.273583412 -0.332907438
-2.309674263 -2.858084202 0.512448251
-2.361785650 -1.967984200 0.259806663
-0.876586437 0.959175825 0.038489986
-1.031467438 0.977107525 0.024968013
-2.036684990 -2.782107115 0.276258081
-2.426758766 0.168356463 -0.683093786
0.882112920 -2.105857372 0.004970284
-0.076610819 -1.160161734 -0.168997437
1.873793364 -0.346101105 0.758640349
1.393807530 2.037180185 0.009371071
-1.391103983 0.618476272 0.266213268
1.950068116 -0.508729935 -0.034836400
-1.607864380 9.180021286 1.938772440
-0.605713427 0.902632058 1.512562871
-6.094429016 1.746005535 0.975304544
-1.237585783 -0.538973629 0.145788237
0.007267210 -0.042656086 -0.199064925
-1.249042869 -0.519421518 0.135445938
-0.863267541 -4.536059380 0.158756003
-2.245073795 1.280656576 0.077110864
-6.053009033 -0.141420990 1.265565038
-0.836569846 -0.511371791 -0.449992537
0.341720045 -1.727984190 -0.269941211
0.175497577 -0.249045074 -0.252393007
0.709424198 -5.250021458 0.896106303
1.330753922 -1.069154859 -0.441461295
-0.523697138 -3.201512337 0.093507260
-1.603297353 -0.762345910 1.158094525
-0.016298220 -0.084388927 -0.247781813
-1.583237290 -0.151040718 -0.031543415
-0.624112487 -0.393952549 -0.524398208
-1.778862000 -1.367172241 1.055082083
-2.415182829 -2.041953802 0.264447123
-2.183275223 -2.660945892 0.186150864
0.180516616 -1.654142737 -0.612018228
0.174122527 -1.364729047 -0.581170499
-1.148430347 -1.027021170 1.953909039
-1.238176346 -0.537549853 0.147327304
-0.840604722 -2.144825220 1.033119440
0.166900322 -1.423161507 -0.602359831
-3.129075527 -0.617512584 0.282525539
0.239269689 -0.126720801 -0.516253769
-0.339589715 0.437720537 -0.235549837
0.172033429 -1.363258123 -0.229124650
-0.985497057 -1.437531114 1.288087726
-0.838190198 -2.210264921 1.058125734
0.137719229 0.327130884 -0.822080791
-1.336468220 -0.065457508 0.007674585
-4.369065285 1.175899148 1.257130861
-4.245118141 -0.165889904 0.231745213
-1.170839548 -2.412503242 -0.773476660
-1.565878868 -3.292420149 0.669584572
-1.633447647 -0.146112308 -0.470118642
137.360198975 -75.093132019 37.349639893
-0.147442117 0.438513756 -0.364795744
1.525102019 -0.173858151 -0.686773837
1.719435096 -1.388658762 0.009970226
2.274064302 -0.353723377 -0.333353430
-0.268067241 -1.169656396 -0.749206901
-0.970807850 -2.139217138 -0.557075500
-1.463747263 -0.171244040 -0.046231791
-3.267026186 -3.363798380 1.028088093
-5.963370323 -0.136968359 1.264756083
-0.265577614 0.710052013 0.058335204
-2.617440462 0.172084823 -0.721167207
-0.989264786 -1.656516910 1.370884180
-3.341498375 -0.099520303 0.037959445
0.069430262 -0.096542180 -0.232271656
-1.459268570 -0.657500148 1.072585821
-0.080414660 -0.344791174 -0.189910010
6.601307392 3.016132116 -1.778467298
-0.833346486 1.448837757 0.122826964
-1.716336131 -0.158295691 -0.071832776
-0.822644055 1.708233595 -0.168150172
0.112470090 0.033108033 -0.249436438
-3.464843750 0.174049109 -0.107922688
0.798366547 -1.124606848 -0.273479164
-1.675399423 -2.579592228 1.082110286
-1.610886693 -3.355267286 0.485155612
-2.334331274 0.129983634 -0.519968390
-0.785708487 0.832359016 -0.093278781
-1.506382346 1.031073928 -0.175636709
-33.210922241 3.471567631 -24.887159348
0.038972605 0.669613719 -0.025543008
0.095728174 -6.694623947 0.440948904
0.907294631 -0.272377819 -0.118160047
-1.848350406 -1.393367410 0.026490852
-1.962658167 -3.005379677 1.073393464
-1.929768205 -2.916506529 1.072302341
-1.975323081 0.870349348 1.297251344
-0.379878938 -0.491698265 -0.552788556
1.516849399 -0.172897562 -0.681774259
2.259084940 0.625261128 1.070403457
0.465325981 1.734129667 -0.130555928
-0.833298385 -1.778807878 -0.761317849
-3.407103300 0.009029011 0.167046174
0.336993724 -0.229565114 -0.712003112
-0.335388929 0.130437374 -0.323666155
55.633258820 -48.362331390 0.132570148
-1.805936337 -1.340051889 0.207620844
0.177534744 -0.229757488 -0.248585075
-0.034246027 0.325145721 -0.241253316
-0.718617976 -1.979055166 -0.645600319
0.205291420 -0.448525965 -0.877925038
4.234926701 -1.005161762 0.127405390
1.901024938 -6.424139500 1.685557246
1.232624292 4.024168968 -4.714547157
0.077891804 -1.187155485 -0.669774294
1.777192354 0.232819304 -0.194294736
0.031997718 0.271829844 -0.241193146
0.052407149 -1.033371806 0.752710998
0.383652151 -0.184426010 -0.258515596
-0.510144413 -1.697243333 -0.110736191
-0.117432244 0.120656461 -0.245742023
1.090768576 -0.182843581 -0.658227205
2.144169569 1.169546247 -0.124969013
1.730800152 0.963877916 1.043045878
1.043318868 -4.225646496 0.177755758
0.014065444 0.674438894 -0.038042057
2.873720884 -1.036498308 1.036843777
-0.175471589 0.100027204 -0.349029958
-1.668125868 -3.839235306 1.148141026
-0.609378219 -5.509460926 0.785798550
-0.518203020 -0.634566188 -0.591720581
0.059809763 0.671251178 -0.007830779
-0.077235773 -0.008937238 -0.249884233
-1.405218363 0.937095344 -0.709455192
0.775919795 -1.302214622 1.229413390
-0.126238897 -1.666166663 -0.261333168
-0.076398291 -0.661606908 -0.299447238
0.036300216 0.669871986 -0.020041680
0.060269117 0.671329856 -0.008526575
0.048400514 0.683348536 -0.014803561
0.113904074 0.835077107 -2.378687620
5.846230030 2.100251198 -0.401836932
1.160984874 -0.306028306 -0.261236519
0.507646322 -0.885188878 0.527844906
-0.220798507 -0.592158556 -0.677598000
-0.679673553 -0.105580077 -0.197540089
-1.646877646 -3.697439909 0.751613200
9.562550545 5.389453888 0.163886651
-0.057887670 0.175255701 -0.261643440
-3.977079868 -0.731135845 -0.103529580
-5.017187119 1.347197294 1.052136779
3.142809391 2.512427807 0.859976292
-0.219491079 1.554669142 -0.204832196
1.292829633 -0.849809587 -0.211584017
-0.757626295 -1.834609866 -0.100289203
0.631091058 -0.518061876 -0.224624455
0.308610141 -0.013660834 -0.580281794
-2.268630981 0.381233215 -0.307598859
-0.340693295 0.434173077 -0.238593951
-0.938910902 0.878132522 -0.698837399
0.444624662 -1.174691319 -0.212803066
1.684208155 -0.458950996 -0.715260327
1.772673011 -1.597299457 -0.004637392
0.178475782 -1.004273772 -0.475161076
0.103712961 0.037561905 -0.238208726
-1.150160432 -0.113358676 -0.249452397
-1.970311880 -0.947404802 -0.028602486
0.499301493 1.487385035 -0.096720986
0.083397269 -0.301696539 -0.731735528
-0.114111215 0.117079936 -0.244190961
2.131144524 1.081699491 1.050854802
-0.927206814 -0.353128403 -0.404376596
-2.575113297 0.090798967 -0.580751479
2.059409142 0.063773826 -0.233592346
1.670205712 0.970324159 1.059994578
1.248095632 -1.517784238 -0.302242428
1.093228221 -0.848811507 -0.186785802
-0.850764453 -2.124500513 1.016443610
-0.834263086 -2.283091307 1.097581148
-0.847920239 1.361661673 0.191120282
-0.901691556 -0.296414822 -0.702477515
-2.086899757 -3.355728626 1.028041482
0.568795919 -0.031186759 -1.478719234
0.423715383 -0.201224536 0.073505387
-0.766976714 2.741895437 1.124510288
-0.401325911 1.879662991 -0.373446822
0.046095394 0.700198472 0.001277034
-2.786461115 0.238788038 0.020769274
0.787300289 -0.355179191 -0.651859820
-0.390444010 0.467716575 -0.386743367
1.604384661 -0.608868659 -0.406243891
-0.216968566 0.499297798 -0.245091885
-2.535209417 -4.731052876 -0.224370867
-0.034955688 0.573807061 -0.518776238
-0.919046044 -0.589688241 -0.262929499
-3.360886097 -0.275537521 0.007597432
-0.353571206 1.738881588 -0.149664119
-0.778214037 1.011645436 -0.062786393
-0.930573761 -0.329452068 -0.432898223
-0.498912007 -1.856437087 -0.083960146
-2.057678699 -3.174704075 1.112150550
-2.055077553 -2.507968664 -0.126366988
-2.469580650 -2.090718746 1.072151542
-0.768710315 -0.160950676 -0.610115170
-0.757172108 -1.905692220 1.180042624
-1.687765121 -3.919112921 1.117420197
-1.245206952 0.932548046 -0.086099811
-3.038683414 -0.643859029 0.280956358
-4.118262291 1.016265869 0.237205982
-0.402765572 -1.923541427 -0.214250639
-0.691876531 -1.807963967 0.000901803
-84.726051331 73.820869446 11.212265015
-1.481358767 -0.632960498 1.067660332
-1.359103918 -0.482005656 -0.000864908
0.241173834 -1.519585013 -0.247744545
0.513767481 -1.895317435 1.311233759
0.118508458 -1.309613824 -0.669343531
1.179026842 -1.474883795 -0.298364908
0.107290186 0.630516708 -0.004125646
-3.484429598 0.596575558 0.525149107
-1.537521005 -0.606942534 -0.009019887
0.278090626 -0.956317425 1.443866372
0.613338470 -4.349490166 0.134488627
0.472708374 -0.805413902 1.376279473
-1.822966337 0.388340622 -0.704152405
-1.452016473 0.732998133 -0.217099756
0.013696791 -1.667961359 -0.249407098
0.364008754 -0.163449973 -0.251985461
-0.945265770 0.877572656 -0.693088055
-0.133474648 -1.431616306 -0.527414501
-0.364593863 -2.408974171 0.055346403
-3.595739603 0.368646532 0.556276441
0.390418708 -0.187163919 -0.259113163
-1.335984468 0.726546049 -0.017045803
-1.150874972 -1.575807810 1.369269133
-4.547420979 -0.883608043 -0.633652687
0.181844592 0.262703419 -0.241630048
1.900107980 -2.640824080 1.156526685
-0.342166364 0.436871648 -0.237374410
1.682078838 0.207701072 -0.586371541
1.129683495 -0.858778954 -0.204956308
-0.441985518 -0.511348546 -0.663907647
-1.072082996 -0.347050399 0.092272893
1.599072456 -3.644864798 1.192654371
-0.556483507 -0.320042402 -0.662675440
1.697265387 0.212123677 -0.582081139
10.959242821 -2.675084352 -0.290466189
1.081953406 -2.095080853 0.053551175
-1.586791515 -0.634787917 0.152481228
-0.013453672 -3.818500996 0.969813406
1.166455150 -5.162784576 -0.000934516
-0.034954511 0.319217384 -0.234639958
-0.910731494 -0.337453395 -0.510584295
-2.106737375 -2.717845440 -0.173561260
-2.332506895 -1.968574524 0.252112895
-1.934057713 2.831855297 -3.285095215
0.245626330 -0.363287240 -0.643213809
-0.080931149 -0.074467435 -1.011461377
0.390991837 -0.183986023 -0.256635100
-3.081258535 0.344317406 1.170596123
-0.932723701 -0.330528200 -0.261996716
-4.449758053 1.249342680 1.334822893
-0.822140932 -0.472007930 -0.205213264
2.216834068 -0.026280373 -0.233143404
1.753670812 0.390362740 -0.200709790
0.174614087 -2.392457247 1.107196927
-1.329388976 -4.062302589 0.395793915
-0.786762834 -0.512575567 -0.236523286
-0.427092940 -0.873249590 -1.065016389
-1.735435128 0.559280992 -0.174351975
0.866919100 0.344744712 -0.102686189
0.543813944 1.710197091 -0.111942120
-0.652729213 0.822586298 -0.052935984
-0.072478607 -0.004380462 -0.251705855
-6.685699940 1.992461681 1.073546767
-2.371645451 -0.167116910 -0.008532824
-0.554720223 -1.170904160 -0.373602569
-1.246389747 -0.530020237 -0.010474604
0.490894556 1.855910301 -0.581429482
-0.006219064 -0.247088924 -0.235579997
-0.196112990 1.562837362 -0.225490466
1.857372642 -0.537238061 -0.689027309
1.419179440 -6.623472214 0.843008459
-1.931687117 -2.301609039 0.470063746
0.747706831 -0.419659197 -0.227418274
0.414321303 0.090686940 -0.703589141
0.684330821 -0.369679362 -1.779176712
0.028731937 0.159738317 -0.260752141
0.027890647 -0.019273449 -0.246444672
-0.861871243 -0.488837481 -0.401826203
-1.177979946 -1.580084920 1.373804688
1.313808918 -1.202393889 0.004015604
0.827598512 -5.534651279 0.961103737
0.630705595 -1.425987840 0.081034668
-0.312521011 -2.671147823 1.350760460
-0.393373996 -0.421721578 -0.507781625
0.443073064 0.040212773 -0.765368819
-0.420170605 -2.038634300 -0.156385556
-0.569228411 -5.299002171 -0.101141520
4.718353748 -3.282118082 0.042524412
-1.073005199 0.934590697 -0.589479029
-1.687866688 0.697488487 0.144223228
-1.453281045 -0.025830382 -0.183224544
-1.854906797 -2.547876120 0.516265035
-0.103932098 -1.979786992 -0.201630518
-6.188836098 1.283279300 0.241347536
-2.178945780 -2.700085163 1.146015882
-0.727588952 -0.603306949 -0.309862316
0.598641098 -0.939505279 -1.408750296
-0.092698753 -1.523429513 -0.478929073
-0.508766651 -2.294021130 -0.175124064
0.661333859 -0.561780751 -0.181642368
0.030486371 0.277825147 -0.234722793
-0.143317625 0.203759268 -0.239817917
0.381856799 -0.390866697 0.561241031
0.680896044 -0.419059038 -0.508273244
0.472324252 -4.836554050 -8.749285698
-0.143431798 0.191657215 -0.187033281
-1.710270166 -0.178932577 -0.523916483
-0.008638768 -1.589976907 -0.251976192
-1.675687075 0.232426390 1.266268849
-1.094317675 -0.984946072 1.905258417
0.156424120 -2.669527769 1.226252079
-0.730865121 -1.538692355 -0.197421789
0.829451621 -1.250742912 -0.316201895
0.010939443 0.644487560 -0.011960107
-0.254370630 0.387141883 -0.615331888
0.033128530 0.655762136 -0.019103417
-0.496162683 -0.475467622 -0.527307332
1.418938398 -0.932596743 -0.228266641
0.276429564 -0.895144522 1.389983773
1.767172813 -0.611745298 -0.207252428
1.713450789 -0.577870667 -0.201076642
2.142634392 0.876343429 1.133362412
0.387143254 2.100522041 -0.346965373
-0.614096761 1.060554624 -0.633504570
4.549221516 0.944410205 0.158401132
75.537490845 -66.965194702 41.495758057
2.008286238 -0.118074417 -0.280918032
3.373979330 2.176407814 -0.232616261
8.943360329 4.324643612 0.530829549
6.281501293 2.199892044 1.018430948
0.494089097 1.825428605 -0.401343554
2.592104435 1.431476712 1.442588925
1.682354569 0.138398200 -0.673924327
0.165583417 -0.034979243 -0.160508975
0.825154781 -0.226159871 -0.373300314
0.425725669 -1.552029490 -0.470576823
-0.555087507 -0.429463506 -0.248468459
0.018565731 -3.917007923 0.989407361
-1.563116193 0.307888508 0.405900836
-0.976930559 -0.276166558 -0.268250257
-1.642988801 -0.077056505 -0.696863472
4.072499275 -6.738279343 0.760860026
2.157629251 -0.128278613 -0.552457511
0.016715657 -0.173224583 -0.247251049
-0.671578944 0.250083715 -1.867332339
1.397200108 2.408729792 -0.406324118
-0.363761991 -0.472475737 -0.048705485
0.479098946 -0.224504322 -0.492563695
38.100105286 3.432245493 -27.667268753
1.261232018 1.292904139 -0.653876185
2.389677763 1.065422297 -0.675044000
-0.676282883 1.139208555 -0.141141608
6.365329266 2.084008932 0.733093619
0.025793890 0.178375185 -0.242846504
1.982176304 1.030454874 1.055590749
1.232773900 0.830508769 1.146353841
9.410654068 3.856127739 0.194380641
2.940315485 2.437621117 0.331632584
3.575435877 0.508969069 0.446914285
3.763745070 1.335419297 0.995846391
4.718546867 -3.322389603 0.084753767
7.485394001 2.996309757 0.364424914
8.139532089 3.344366550 0.307361275
4.900565624 -4.566107273 0.824292958
1.832186460 0.239478663 -0.220169529
0.069152355 -0.082443334 -0.149650976
0.101916261 0.033618174 -0.142499298
-2.671685696 0.259070456 0.039207697
-4.016172409 0.932447493 0.193368569
-0.709392071 0.728232861 0.053916309
-1.945767403 1.465813875 -0.921108425
0.010288690 0.675726831 -0.023865260
-0.508580506 -1.708552957 -0.118460007
2.016189337 -0.418532819 1.217171907
-1.667625070 -21.974847794 8.433665276
0.823773086 1.874030590 -0.284641206
1.155319214 -2.728869200 0.584752977
0.499179333 -3.362057686 0.110443279
0.718942881 -0.087415956 0.528626502
1.100734234 -4.798230648 0.045321338
-1.940997958 -2.755653143 0.326741725
0.048248723 0.682033956 -0.014982830
0.036352057 0.670518160 -0.020012489
0.015119156 0.631196737 -0.032740153
0.137775093 1.400446296 0.006548265
-0.837409258 5.514751434 3.137353659
2.121691942 -1.285873771 -0.082931548
1.721715569 -2.347642183 0.837558568
0.075071201 -0.236186549 -0.224932045
1.667165160 1.818576813 1.168979406
0.931195974 2.477632999 0.155906454
0.090823613 1.517704368 -0.079785839
0.970442116 -0.793289423 -0.331776947
0.045648005 -0.090267397 -0.246080413
0.608313143 -0.907106221 0.040005650
4.075721264 1.543154478 0.522165418
1.281551480 -1.881078243 0.031585537
5.939025402 -4.524760246 0.671330512
-0.628626347 -0.383697748 -0.256715387
-0.070223011 -0.702355981 -0.675215125
0.249759465 -0.264404833 -0.554782987
-0.102660924 0.297222108 -0.248532847
1.017155051 -0.354704708 -0.279711843
0.063001685 1.460292816 -0.458790272
1.183094621 1.617778540 -0.373827785
1.587499022 -1.059263945 -0.268367946
-0.109117299 0.752123415 -0.980623364
-0.050664108 0.825754166 -0.691751659
0.453483582 0.388936192 -2.226160288
2.930108786 0.630858004 -0.296598554
-0.685331821 -0.417614639 -0.676107883
5.018971443 -3.513390779 0.462394625
-1.713643432 -1.945376992 -0.094006434
-2.819173813 -2.830137014 -4.460386276
1.353526115 1.312287927 -0.428736240
2.729187965 -1.480037451 0.871874213
0.186590344 0.910223126 -0.245655164
-0.255883485 0.860213280 -0.322215766
-0.436607242 -0.373809248 -0.676698506
3.588638544 0.510330975 0.442371130
1.578254223 2.066351652 1.187724948
1.446757197 2.405305624 1.257189035
1.448252320 -4.497859001 1.142796755
0.359829038 0.756144226 -0.183823988
-0.753991306 0.863880813 -0.396707237
2.624450922 -7.279323578 0.737561047
-0.173974663 -6.593080997 0.429875612
0.575822175 1.739790678 -0.043783169
0.251637429 -1.401507139 -0.238708004
1.650224090 -0.602519989 1.188364267
1.774269462 0.223188162 -0.186863899
1.643065453 -0.584408402 1.189066768
1.516539216 -0.170894787 -0.687854826
0.069121011 0.420844793 -0.534870446
-0.032126445 0.567907572 -0.214912578
1.260233760 -0.287005812 -0.291949391
1.675415277 0.428006977 -0.713461876
1.040158272 -1.031250119 -0.293657899
2.038207531 -0.514782846 -0.431479096
1.145905137 -0.326576054 -0.248710871
0.106252208 0.047818486 -0.165631607
1.688603401 0.200249523 -0.586289525
0.680298805 -5.014881611 0.876848459
0.095715202 -0.306604087 -0.396766514
2.707962990 2.339627266 0.590392113
0.429679811 -0.754126370 1.364064097
1.717512727 0.343152076 -0.313504905
1.771923423 0.376907825 -0.203189671
3.327697039 2.150977612 1.065337896
3.749055624 1.770328641 1.097203493
3.070322275 2.043172836 0.228553385
5.237641811 3.109942913 -1.422431588
1.843891740 0.971689403 0.986551464
1.061211109 2.158741951 -0.134864286
0.595308840 2.231037617 0.047027577
4.790184021 -2.726202965 0.641605437
4.172304153 1.031391740 0.652919829
3.735036373 0.411720932 -0.124830090
0.029764982 0.277573764 -0.234760702
0.780510128 -1.029343009 -0.228446603
7.449019909 2.132208109 0.175058722
0.024107566 0.180040419 -0.243738011
-0.545940816 -0.389369577 -0.596478343
0.403748095 1.885396004 -0.006645164
4.350639343 3.230043411 -0.328826934
5.154531956 -3.682266712 0.774758339
3.355854511 -1.991333246 0.944244564
-0.293487668 0.446859509 -0.656633675
2.201140165 -0.286178559 -0.330062777
1.415207505 -6.767725945 0.852520704
4.446182728 -4.676669121 0.805896521
-0.113510191 -1.904534936 -0.198243737
3.824943781 -6.442744255 0.647049367
-0.013743632 0.602120519 -0.235069185
-0.146284252 0.281554848 -0.233332753
0.102499068 0.055861153 -0.170132130
-0.348493755 0.439986259 -0.239014313
4.799997807 -3.363525867 0.694518149
4.377683163 -0.599685848 0.330510914
-0.743059754 -0.701228619 -0.712973297
4.245909214 2.505590916 -0.348268628
-0.032392833 -2.008288383 0.958888590
0.569182158 1.223544240 -1.783508658
4.755723000 -4.827409744 0.638279676
-0.484324932 -1.815224051 -0.324588627
-0.141462684 -1.311461210 -0.684796393
0.976435006 -6.158291340 1.050760984
-0.607047498 1.025749683 -0.070177041
0.494796753 1.846608520 -0.571142018
1.354899287 1.458568215 -0.546431959
-0.186111465 0.261437982 -0.238711521
0.382844359 -0.164724275 -0.262182117
-0.113264427 0.117201872 -0.247365654
0.017711891 0.175521776 -0.243789941
-0.758703947 -0.300194323 -0.250736892
0.078267835 -0.206748843 -0.221153036
3.047324181 -0.557539284 -0.894660294
-0.270600587 -0.261628985 -1.153799415
1.528754473 -0.652069747 1.210211158
3.914280653 3.078215122 1.048712730
8.419553757 3.703088522 -0.625739634
-1.524813890 -2.806846619 -0.191045493
2.277776003 -0.265523672 -0.315835714
-0.021978583 0.603305221 -0.244075730
-0.604256690 1.264758468 -1.461757898
-1.181973219 0.776625216 -0.553729117
-0.589801729 -0.172317699 -0.702252328
-1.270449758 0.940592170 -0.099503405
2.139409304 0.602210045 -0.214055791
2.081607580 0.002521884 -0.231022939
-0.007464819 0.567856133 -0.390421063
3.585185289 -2.160223484 1.035141230
-1.959936857 -2.196045160 0.473891586
0.024275484 -6.238695621 0.425628752
-3.587446213 -4.225712299 1.079533219
-0.112520978 0.115758479 -0.245208800
-0.027317574 1.787396073 -0.117617838
0.221763641 2.396808863 -0.161465511
1.909396291 0.396930158 -0.217231438
1.607053638 0.390079767 -0.691881716
1.837119341 -0.582614601 0.761684358
5.304222584 0.192993402 -0.613165140
0.938581944 -2.244164705 0.017580837
0.207647488 0.196882769 -0.301890224
0.036752198 -0.087376222 -0.246058390
-0.589441597 -0.381370395 -0.708196104
0.133097887 -1.348827481 -0.662384033
2.150683165 -1.964456201 0.695628464
1.209311008 3.271811247 1.292296648
0.730258405 1.364685416 -0.637271523
-0.012480598 0.099220425 -0.247439891
3.525639057 -1.871221423 1.103121400
1.289011359 -1.249431372 -0.078307211
1.918165326 -0.453293592 -0.148392975
-2.383074999 0.186876997 -0.655520201
0.643601954 1.195543766 -0.428057045
1.733708382 0.368297309 -0.614727736
5.460987568 2.671808243 -0.735801339
1.728520274 -0.844326437 -0.202526420
2.066930532 -1.381843209 0.648953259
1.779579282 -0.114471838 0.780687034
2.193803072 0.174748719 -0.567604661
1.528846741 0.051688809 -0.575811088
-0.254287124 0.451205164 -0.326476932
-0.440927088 0.312471569 -0.360382050
-0.270693094 0.417842537 -0.616032481
-0.262141675 0.458701134 -0.308797866
-0.059264414 0.137271896 -0.245933399
0.135771602 0.070018455 0.347240508
0.154298246 -0.527861655 -0.165153563
0.073496863 -0.206211120 -0.215379179
-0.316540807 1.394776702 1.003801823
0.042542402 0.022493759 -0.183902130
-1.848541021 -4.418619156 0.903666317
1.446934581 -0.436441451 -0.349277675
-0.358578175 0.472264856 -0.206722006
0.009218850 -0.930065215 -0.506876051
0.170710862 -0.464094490 0.573581278
-1.854255199 -2.536498547 0.525753200
1.948495507 -0.274408937 -0.463686287
3.700410128 0.399622023 -0.051238406
1.761525393 0.720996022 -0.671707153
-1.722240448 -4.061012268 0.633744538
0.034007482 -6.817710876 0.946069062
4.469709873 -4.042596817 0.765066385
-0.115912780 0.109113827 -0.246049643
0.193798482 0.053480856 -0.307877094
3.218052387 -1.880425811 0.883450270
-1.586316824 -3.891227722 0.508061230
1.587879658 -0.409694821 -0.678583860
4.386533737 -0.976175487 0.017899515
0.184098810 -0.226254582 -0.245618865
0.915068805 -0.293141514 -0.649400115
0.028419722 -0.162531927 -0.234260961
0.786768734 -0.344707847 -0.653356254
0.810505271 -0.529424071 -0.725935340
-0.111402169 0.121275306 -0.249386117
-0.233612582 -0.900766194 -0.906355262
-0.441607207 -0.362543494 -0.669500291
-0.059137017 0.586748958 -0.375421345
-0.573902547 -0.439790636 -0.261769742
-3.559303045 -0.835059822 0.278457642
-3.143679857 -0.743851662 0.258965701
-0.965715170 -0.269190341 -0.261425287
-0.938256323 -1.472223639 -0.774983823
-0.578680575 1.197718263 -0.200753510
0.338047147 0.638399482 -0.385332316
3.725671768 2.354690790 0.243158653
0.392559439 1.184761763 -0.672395885
0.761615396 1.843723059 -0.288761377
0.844941437 0.042748056 -0.918594062
0.014887757 0.005826536 -0.180526853
2.641684532 -0.822891116 -1.143346429
-1.291510940 0.013493888 -0.321691662
0.047889423 -0.076569378 -0.143509746
0.679883659 2.369234562 0.154442936
4.497163773 -0.981686890 0.118279897
0.021368828 0.182010382 -0.240959316
2.464445829 -0.029649699 -0.068522364
0.453829378 -0.424540877 -0.186460868
0.957109332 -0.781208575 -0.333567768
1.708029747 -0.602077127 -0.174660146
1.681121469 0.396946818 -0.191874236
1.121434450 2.197494745 -0.036481142
0.940576077 -0.771148264 -0.321947902
-0.882754385 -1.356230378 -0.083807126
0.215544656 -0.246797413 0.210223004
0.371528894 -0.328463912 -0.193957940
0.382655263 -0.400060713 -0.061622113
0.331893265 -0.287472934 -0.198655084
0.378703386 -0.422584832 -0.074732438
1.319232583 1.303777337 -0.416039973
2.184632063 1.165109634 1.175295353
1.788380742 -0.550386071 -0.056085587
0.074932612 -0.084264643 -0.152477890
0.627832770 -0.388812631 -0.249101520
-0.059496045 0.318636507 -0.240219355
2.652618647 -0.352914333 0.992409170
3.515858889 -0.628111601 -0.070933200
2.127393723 1.082230568 1.092839599
0.030308085 0.281056285 -0.238645270
0.046749461 -0.089631654 -0.247401819
-0.121416777 0.142158478 -0.257238865
0.867946863 -0.274349272 -0.201034606
3.744521379 1.261334300 1.036230564
0.058137439 -0.085691363 -0.167876557
2.721443176 1.200665474 -0.459801853
-0.878748119 2.062285185 -0.024027076
0.386058271 -0.065455109 -0.247190684
-4.973823547 6.215573311 1.327566862
1.337287307 1.443747640 -0.537807107
2.155603647 -0.123223923 -0.553518891
0.606693089 1.428248525 -0.595718145
5.123735905 1.900132895 -0.353598535
1.689311385 0.208955854 -0.271407425
1.988972306 -0.410381287 1.201670408
0.385262430 1.183186293 -0.664229393
-2.647769690 -3.539560318 0.514616489
0.896013975 -2.129813910 0.745296776
0.112882793 0.063609444 -0.170843095
-0.061496425 0.854276657 -0.420006782
0.035004377 0.885807872 -0.829665005
-0.101818591 0.826576829 -0.367881924
0.138646930 0.756868958 -0.875427127
2.658025980 -0.333916366 0.976716399
-0.000562595 -0.151928738 -0.241107225
-0.137939841 -1.297163606 -0.679781020
2.136029482 -1.216673493 0.680102587
4.240402699 0.286403954 -0.470609695
4.458847523 -4.814254284 0.465654701
1.182945728 1.247009993 -0.362689763
-0.328798354 -0.572768986 -0.636758208
4.890033245 -3.409927368 0.707558036
1.090737104 -1.450689077 -0.101498477
0.816071868 -0.333247691 -0.440259814
-0.092581980 0.922758222 -0.564484835
0.395681560 1.102915168 -1.402096152
0.171792969 5.396923065 1.335066199
-1.993267655 -1.598243713 0.232920930
0.051811974 0.597464442 -0.739410698
-1.054311275 -1.676091313 1.505173445
2.282271147 0.143614471 -0.665957391
-0.015885968 -0.082961969 -0.248797193
6.809006691 -0.363212526 -0.243448824
3.381657600 2.366316795 0.187518597
0.041952014 -0.065101884 -0.142644837
0.113942705 -0.260605544 -0.248698637
0.067547359 -0.096699707 -0.185562894
3.055056572 1.989914417 1.140783787
0.375490457 -1.450296998 -0.446264297
5.959856510 2.284298658 0.933733165
-0.035054784 0.321960628 -0.238913372
4.645932198 1.083056211 0.959760964
5.778309345 -9.776701927 -0.073734239
-0.094216771 0.283742338 -0.236880362
0.815757513 -0.628369629 -0.130062073
4.499711990 2.685010910 -0.595176101
-0.079774767 0.302614927 -0.247765556
0.793210208 1.316919446 -0.378670961
1.827000618 -0.674693584 -0.196617544
3.839617729 1.335158944 0.566764235
1.045639753 -2.577262163 1.494760513
-0.084645428 0.289513320 -0.159649372
-0.747934878 -0.268422961 -0.685938418
0.821473897 -0.454997987 -0.631923199
-0.172410354 3.240684032 0.161124259
0.125295728 -0.220422670 -0.243139967
0.428572118 1.791616678 -0.137344658
-0.301091254 0.203719720 -0.276683480
0.138868630 0.529232085 0.169940546
2.922999144 -0.861557484 1.081517577
-0.825466335 1.457307696 0.130187616
-3.441687346 -0.656391799 1.200400591
1.478648186 1.357748270 -0.632743001
0.471159160 1.698453069 -0.130708829
0.237524942 1.995121241 -0.540186346
3.584854841 1.135735393 -0.569724917
4.980161190 -4.623983860 0.841695845
-0.320401102 -0.281235695 -1.188855648
-0.546827555 -0.077984318 -0.772240877
-0.472521365 -0.108149305 -0.675747514
-0.808877587 0.408995599 -0.779625833
-1.539879203 1.112169504 -0.171120614
-1.945056796 3.829838991 1.499793172
-1.935691714 0.125269517 1.438611746
-0.043087915 0.315021127 -0.235027447
-0.285120577 1.603778362 -0.124701791
1.086468101 -4.181374073 -1.771115899
1.285209179 2.510745049 0.008395070
3.184948683 2.230067730 0.068304144
1.406590343 2.625018358 -0.135014787
0.930426717 -0.566856027 -0.830938518
0.424817890 2.209526062 0.046566974
1.887577295 0.748791933 -0.570246339
4.164214611 0.975643814 0.195969626
0.131036848 0.018087024 -0.156973273
-0.173727497 0.280122221 -0.254418135
-2.456080437 0.283541501 0.031388622
-1.550853848 -0.662022829 0.106332660
0.177819699 -0.252435952 -0.248350754
-1.195644379 -0.083756216 -0.286622941
-0.078706555 0.074790716 -0.709381998
-0.892837167 0.784345448 -0.084359206
0.509422004 7.484772205 0.943976045
0.089166902 -0.233787954 -0.262819380
0.084843509 -0.204603657 -0.228723377
0.311586589 -0.290047467 -0.146551535
-0.091948725 0.871503472 -0.720618010
0.345932513 -0.203586966 -0.395015806
0.486775011 -1.577597499 -0.685038984
0.191749364 -0.592358828 -1.355032802
-0.203916594 2.148525238 -1.318073511
-0.711776018 1.254643202 -0.148816556
-0.667900145 2.410820246 -0.231957674
-0.353967398 2.196005583 -0.465194583
-0.182485476 0.865787625 -0.028091347
0.572380781 -1.007559299 -0.703749120
-0.264861196 -0.532032371 -0.344153911
0.093944326 -0.255663127 -0.245550245
-1.766574144 0.633639157 -0.699049234
0.712334216 -0.389621019 0.118544072
-0.263757885 1.295337200 -0.407290578
2.960171461 2.234415293 -0.502595127
6.308862209 3.936929464 -0.365063310
-0.550137520 1.188596129 -0.139152274
0.639164925 13.667302132 2.083237648
-0.113773189 0.127492592 -0.252520800
0.029372381 -0.019670393 -0.150534615
0.603443265 3.259717941 0.053311002
0.332983255 -0.291165859 -0.204088449
0.379964948 -0.355964333 -0.024340022
-0.443086952 -0.551689148 0.080436349
-0.414364189 -0.469930321 -0.336638510
0.463287503 0.088115767 0.067314930
-9.349113464 -25.228933334 -37.348747253
0.053054571 1.200882316 -1.250927925
0.400424510 -0.281881928 -0.004959352
0.025007669 -0.164119929 -0.230932564
2.822025537 2.296649218 -0.486367881
0.594973624 1.731860161 1.342793703
0.168084741 -0.027417533 -0.160700843
-0.456191123 0.848336399 -0.704701304
-0.072500840 -0.004869730 -0.252575368
-0.893697202 0.823319852 -0.126830027
0.325048357 -0.182183921 -0.350238323
0.880781293 0.675641894 -0.677127838
0.632350802 1.185863733 -0.232064962
-1.014061213 2.754541397 -0.423672616
0.078506738 -0.083207197 -0.248149216
0.754353702 -0.686903477 -0.265250772
0.856829107 -0.456944197 -0.662163198
0.630810976 2.034487963 -0.639973342
0.939912498 -0.291828811 -0.527121544
0.869445860 -0.289809316 -0.487142324
0.029808316 -0.024164164 -0.247641578
0.157911658 -0.036737237 -0.174178988
0.073041901 -0.210290268 -0.228462487
-0.781010985 1.293260813 -0.368045092
-11.940199852 8.701479912 1.785742044
0.065097198 -0.356521875 -0.254793376
-1.442498326 1.973861694 -0.316021383
5.784095287 -2.111586094 -0.898160696
1.490631342 1.382556438 -0.640495300
2.153084755 0.840578139 1.162084222
3.200177670 -2.317126989 0.317542523
-0.513948679 1.078171730 -0.129146978
1.217296362 1.255230904 0.037451796
1.261253834 1.392722726 0.034412470
-0.688706219 3.750395536 0.196351767
-3.478094101 0.218462288 0.588059545
0.178165644 -0.152375802 -0.395592302
-0.120875940 -1.388085127 -0.518378019
-0.053290412 -1.104076266 -0.265124947
0.626742363 1.669565678 -0.376685828
0.081512354 -0.210999414 -0.222504437
6.284364223 1.899014354 1.284511328
0.795038819 -0.339421928 -0.657338023
-0.172483295 0.259862632 -0.244181320
0.416539431 1.966780782 0.003724521
0.682081163 1.990227342 0.132945403
-1.190822005 0.964851081 -0.325555772
-0.713444829 0.801721990 -0.174618065
1.231279731 1.574612379 -0.401784420
4.051148891 3.188941002 1.383634567
-1.618783712 0.355421305 0.076499812
1.578729749 0.155865639 -0.149077371
0.802318633 3.835601091 1.276146412
-1.564978004 -0.621872365 0.146259665
-0.162849247 0.616698265 -0.445374280
0.395524174 -0.173706502 -0.247811601
-0.391063422 1.877207041 -0.391809225
-0.809086263 0.900126159 0.056272745
3.730992317 0.670631945 0.578942358
4.568096638 1.569748759 -0.049309742
3.126709700 0.617434800 0.460761875
0.642435730 -0.412435293 -0.793077707
-0.107745118 0.963441789 -0.850394487
0.713554919 -0.616883218 -1.060947299
0.055001624 0.241253734 -1.368116260
0.334205031 -0.289987564 -0.199550584
0.384507030 -0.175796017 -0.245307222
5.056156635 -2.770683527 1.487887859
3.936025858 1.475264907 0.176709235
0.653419495 -0.407262862 -0.259833187
-0.063661933 0.131524146 -0.242872164
-0.400963247 1.941195965 0.307092875
1.774990678 -0.689854920 -0.214913279
0.303943664 1.703459620 -0.114270426
0.014371165 2.886347055 0.163390979
-0.175361753 0.258927524 -0.242347926
0.141666681 -1.558153033 -0.653317869
0.689134777 -0.304046631 -0.211472675
3.243659019 2.269813299 -0.571587861
0.033441175 0.285377413 -0.233258888
1.754562259 0.035546128 -0.201923370
-0.320005268 1.685430050 -0.132731766
1.170199871 1.589903355 -0.370408833
-1.613656402 1.840968490 0.308917493
0.320835054 -0.192287564 -0.332892239
2.395148993 -0.329123795 -0.164516866
0.485160321 -1.592396736 -0.719250262
7.904199600 3.527526617 -1.076980710
0.543937266 1.069240093 -0.053009592
3.695083141 0.457906961 -0.427402496
0.560846627 1.815091133 -0.123070292
-0.092941687 0.118794233 -0.243089214
4.152026176 3.263360262 1.141794205
-0.261882603 1.256657958 -0.373009115
-1.447860599 1.416086555 -0.012453817
5.758970261 -2.417037249 0.273001909
2.647367239 0.118744478 1.177714705
3.289344549 0.854319632 -0.617714286
1.646039248 -2.034001112 0.016229205
0.483608007 1.782480121 -0.132751524
0.776048541 -0.344522566 -0.639435947
-0.006679751 -0.039687727 -0.248063982
2.633759260 -0.355559707 1.134327531
-5.917131424 4.877547264 1.348560452
0.679112613 1.411879539 -0.757458270
0.264253259 -0.876929104 1.309105992
0.781833947 -1.194945216 0.003715649
0.335187525 -1.760520339 -0.308687687
2.016457796 -0.308774441 -0.472295254
-0.160610616 0.272305399 -0.240974978
0.844252050 -0.446384758 -0.285826564
2.216631651 0.809477627 0.035598453
-1.803112626 -3.287237406 -2.113608837
0.071798541 -0.349465400 -0.250981152
0.163692504 -0.303469419 0.104924701
1.130064011 3.118534088 1.245465040
2.090769768 1.079845905 1.065216899
-0.015607383 0.610589385 -0.233377129
3.476284027 1.150389075 0.457570344
0.628688693 1.242457628 -0.404969960
0.514796078 1.887021303 -0.403276265
0.193171114 -0.235988185 -0.255095065
-1.274881244 1.224234104 -0.011852648
2.665358067 -1.203634501 -4.622257710
-2.985843420 -0.503439486 1.045562983
-0.723353386 1.290142775 -0.182700112
2.074773312 0.334818184 -0.727878451
2.257728577 0.564662397 1.046436429
0.610511899 1.608078957 -0.368330359
0.468534589 7.319460392 1.158103466
1.463084340 -0.040613160 -0.689516842
3.733669281 1.214754224 1.034788132
0.630671918 1.173429370 -0.655273914
-2.092408419 0.640514910 -0.171431273
-0.313393265 1.747910619 -0.344530702
1.445951819 2.138496637 -0.040832561
9.350375175 5.195120335 -0.656680167
3.891801119 0.969276428 -0.715382278
0.587894022 -0.279224426 -0.672560632
-0.559456348 0.816581726 1.433948994
0.081897929 -0.373355806 -0.326071709
0.166688591 -0.034952722 -0.230367064
-0.896909475 0.908158004 0.026138596
0.121619217 -0.056980029 -1.699008107
1.037139535 -0.428381205 -0.150871634
-5.531187534 -0.608204007 1.008967996
-0.454003006 1.025314093 0.445630789
0.108889557 -0.126681894 -0.178010821
-1.249286294 0.767101705 -0.308549494
0.084890328 -0.290516198 -1.245775223
0.194156945 -0.272393942 -0.502318859
-2.227193356 -0.411828637 1.053919911
-0.009918139 0.438990474 0.777601898
-0.428437352 1.005226970 1.463796973
-1.936457038 -0.017283561 -0.889087856
0.110728741 -0.233668268 -0.215569377
0.083934166 -0.242009193 -0.242247686
-11.399664879 6.352433681 2.006210327
-0.535913348 3.059116602 0.132535785
-0.339871734 -0.754343331 1.338797927
0.188840166 0.188312367 -0.332541883
-0.030149067 0.328141809 -0.241925955
-0.087115549 -1.604948044 0.968543708
-0.132181361 -0.160872936 -0.769559205
-0.413322031 0.990236342 1.431914449
-1.411952734 0.737251461 -0.020880736
0.069544904 -0.346955955 -0.248372868
7.159679413 -0.166653991 -1.138675213
0.028089760 0.277729988 -0.237132058
0.101344012 -0.272617757 -0.217381969
1.012088656 -0.257769704 -0.571585953
0.217355967 1.393496513 0.885001421
1.026824951 -0.407369763 0.163975537
6.070806026 2.418793678 0.267429531
0.068070881 -0.351332158 -0.253696710
-1.100615144 1.240101695 -0.045598876
4.363817692 3.572711468 0.956879139
-0.009482631 -0.078057297 -0.245546788
0.209258303 0.646177888 -0.149557739
0.526559412 1.107685924 -0.049165089
-0.470882535 0.500132620 -0.456579566
-0.750623584 -0.686455011 -0.409654140
-0.601429820 -0.998326480 -0.282787830
0.424514502 1.982406020 0.188809007
1.021236777 1.870291471 0.029130526
0.819201410 -0.350647122 -0.679125965
-0.743119538 -1.907024503 1.186672211
-1.693036318 0.210126802 1.274739385
1.181887865 1.250692368 -0.527096391
1.201507568 1.584252119 -0.640247226
7.045865536 4.401585579 -0.435502619
3.302893162 2.130668402 1.244480848
0.272828698 -0.496908307 -0.929292142
1.290067315 1.499621511 -0.538104951
-0.804016352 0.906541467 0.057032898
0.065403178 -0.075606942 -0.150080651
3.125667334 -2.377615213 0.836410642
-1.343432069 10.435495377 1.420705676
6.007867336 4.311530113 0.346665800
0.125674173 1.810869575 0.201521829
3.960812092 2.513826847 -0.283961892
-0.146173492 0.201591060 -0.243493646
1.723453760 0.694257796 -0.270987153
0.022062704 -0.164850608 -0.226535589
0.042921040 -0.035768624 -0.190371752
-1.409733891 -0.040260453 -0.413344711
-2.053433895 0.965018213 -0.726681173
3.988326788 0.915500045 0.829492152
3.956204414 0.196147338 1.097855926
-0.013361146 0.102134496 -0.250012547
1.213389158 4.401788235 1.044339061
2.345149755 1.004138947 -0.687791765
1.447256565 1.919637322 1.533618450
0.167531624 -0.215618193 -0.240610734
0.171883121 -0.032125268 -0.168638483
2.592740536 0.130858630 1.166424751
0.404050767 2.031689405 0.161217973
-2.088044882 7.236996174 0.380980134
-0.471426547 1.862786651 -0.568961382
-3.201390028 0.087568045 0.548099637
0.165016592 -0.064285114 -0.532180369
0.081511132 -0.290147573 -1.241161466
0.012035803 1.193695903 0.813034356
-2.895370245 2.070249081 1.503019571
0.115808442 -0.319062412 -0.214184105
-2.576061726 -1.764621377 -0.052102298
-0.623199046 -0.888034284 -0.235669613
-0.801465511 -0.716645002 -0.539716065
-0.004574168 1.648542643 -0.093967594
3.244438410 2.252160311 0.060313959
-0.485062659 2.043300867 -0.615183651
-0.625164568 0.078172378 0.442946762
-0.083746575 -0.243115827 -0.302001119
0.547987640 4.093132019 1.231800437
-0.591679811 1.274435043 -0.150261745
-3.196581841 -0.378570795 -0.335882455
-1.220714688 -4.481736660 0.974308789
0.877040923 -0.447359711 -0.683503866
-0.466102302 -0.011147493 -3.152318716
0.598717153 0.257655948 -0.211542100
-0.712983668 -1.990235567 -0.670025885
-0.891975641 -0.302648157 -0.413030297
-1.085996270 -0.399632841 -5.866508961
-2.488377810 1.212270498 0.050030701
-0.027848916 -1.958685040 -0.341167241
-2.300543785 -1.046390653 1.090273619
0.902765989 -0.293694407 -0.640348673
-4.768828869 5.908370972 1.267783642
-0.417871207 -0.377327263 -0.549131036
-0.025985651 -0.271867871 -0.323512644
1.316560864 1.594274402 -0.525083542
0.033226553 0.004594081 -0.228690386
-1.149175882 1.280592084 0.286244184
-5.740886211 -0.952099442 0.029027732
-2.191017866 1.164536238 0.143866330
1.250101089 2.093205452 -0.557503819
-1.756125331 -2.472411156 -0.142512366
-2.520406246 1.249304891 0.037479732
-3.546617508 0.882654428 0.516329765
0.429351062 -1.165964246 -0.202097371
-1.617049575 -0.654876709 -0.034179356
0.625044942 -1.263533235 -0.522534966
0.588373184 -1.440402150 -0.021630069
-3.525892019 -4.149621010 0.840285838
0.477161765 -3.343725204 0.117172077
-0.166665480 0.249960378 -0.236208126
-1.290641785 0.049481552 -0.549174786
-0.642240465 0.215346113 1.530119777
-0.625615716 -0.912848353 -0.250041723
-0.265107989 -0.633136511 -0.225476086
0.805949211 0.501292706 0.978647172
13.617102623 7.576261044 0.066885807
0.001614835 0.072146975 0.351079285
-0.004238618 -0.407913238 -0.146117061
-0.271924615 -0.321383357 0.130530626
-0.692166805 -0.732298791 -0.433828831
-0.674353123 -0.758689284 -0.481567591
0.098604798 -0.204223618 -0.263279170
-0.299224526 -0.153434083 -0.955758870
-0.236336276 -0.524411857 -2.179463148
-0.535459936 2.199132204 0.772270143
-0.047267694 0.543882668 -0.206029356
2.281334639 0.152473241 -0.208992198
3.433414936 2.252585888 0.674023747
3.113181353 1.019398451 0.590781271
-0.070741579 -0.227403373 -1.929742336
-0.945820272 1.939015746 -0.137588203
-0.058266506 -0.091942295 -0.974724293
-0.073119484 -0.503138483 -1.019526243
0.112635031 -0.863926411 -0.949547470
-1.178558826 -0.879746318 0.114365958
-3.973535299 5.554612637 2.006981850
-0.180064037 -0.199557588 -0.912224352
0.691253841 -0.049269903 0.405651838
-0.860070229 -0.482599467 -0.204310447
-0.113592044 -0.430060774 0.150623336
-1.009227991 -0.044996127 -0.867978930
-0.923372090 -0.348163754 -0.416020840
-3.561972857 9.613676071 1.327051759
0.060542371 0.515726328 -1.102506161
0.012538792 -0.938343704 -0.102475271
-1.409807086 -0.441622347 -0.424767643
-5.401739597 7.043534279 2.581893921
-0.228574395 -0.054248180 -0.321689606
-2.111174822 -0.756789982 -0.561381161
0.091830440 -0.233846039 -0.213180035
0.111025110 -0.214809820 -0.193634674
0.250364840 -0.253356636 -0.251642466
-0.324837357 0.082365610 0.953694284
-4.095445633 1.129921317 1.293152809
0.447371840 0.231820866 -0.224109069
0.387360543 0.229324967 -0.311719209
-0.168766513 -0.414440274 0.077395558
-0.929120183 -0.307408035 -0.689329207
-0.702869058 0.932347715 -0.687549472
0.591112971 0.423015952 0.450678051
0.775444388 1.402043223 -0.074922562
-1.499464393 0.780328691 -0.615071535
-1.151228905 -1.037802219 1.978367686
-1.049690723 -0.431071669 -0.776629686
0.312194586 -0.289573789 -0.146083757
0.333837599 -0.289344966 -0.199787006
0.313910484 -0.243929774 -0.210439831
0.238048866 -0.254849046 0.094329521
-6.644314766 56.349533081 13.326199532
0.209220096 -0.405263275 -0.326864004
0.066400774 -0.097435109 -0.230859101
0.193966717 -0.272176176 -0.501289606
0.189953119 -0.060533620 -0.500943184
-4.506687641 -3.909155607 0.792874813
0.495777190 1.256186724 -0.436830878
1.292156219 2.976538181 1.263857841
0.247893512 0.680162549 1.321602464
-2.641024351 0.871666729 0.081267983
-0.413826585 0.986443639 1.496082783
-2.377428532 0.783332944 0.104701735
-2.528174400 2.338897228 0.417018175
-0.941595912 -0.233392864 -0.447674304
-0.784548938 -0.530106425 -0.236981943
-0.989980161 3.117499590 -0.429280162
1.840948701 0.560461819 0.256473362
9.927058220 4.285736084 -0.719973266
0.044556625 -1.900372505 0.221341237
-3.291891098 -0.199040994 0.209961727
-0.927805483 0.869692385 -0.142459959
-0.577107549 -0.438008487 -0.263199657
-0.126478821 1.687401295 -0.229113400
-0.312587976 1.761714458 -0.156510025
-0.554980993 -0.220266521 -0.237221688
0.087779738 -0.089614540 -0.202686474
0.639463186 -0.528678656 -0.216345817
-3.768842936 0.351748198 0.686539888
-1.046319604 8.711644173 1.685164571
-0.421955556 -0.153756514 -0.597208023
-0.924330235 -0.330665112 -0.262285113
-0.660471380 2.146588087 0.776136518
0.913300216 0.098051697 -0.672135234
0.257989883 0.708259046 1.352321148
-1.315140009 0.860940933 -0.325162679
0.403913170 -1.299552202 -0.433543712
-1.672550321 0.795963228 -0.095767803
1.943275690 4.049855709 0.235186651
-0.004589950 -0.037520058 -0.248972192
1.813411236 -0.144498944 -0.618572474
1.459160924 -0.266972959 -0.325342983
1.285111547 -0.574329436 -0.667448759
1.745113492 -0.248608559 -0.673960447
-1.750002384 0.756400406 -0.635223150
-0.563911796 -0.189968556 -0.655287623
-0.666424453 -0.563057840 -0.795831323
-1.259948611 1.038937449 -0.136566222
