ply
format ascii 1.0
element vertex 1271
property float x
property float y
property float z
end_header
-1.446807504 0.001845425 -0.784433186
1.591507792 1.637004495 -0.694696963
-0.733613670 -0.300397009 -0.924096525
-0.041847348 1.690478563 -0.360677868
-0.115161821 2.649722576 0.134504512
1.612212539 2.508173943 0.037824821
-1.387192011 1.060916066 -0.178965494
-0.039151642 0.429739475 -0.281505913
-1.532046914 0.817015231 -0.284387052
-0.741142392 2.532049894 -0.316695839
-1.214932442 1.082279801 -0.352586538
-0.768219113 -0.235258177 -0.290812552
-1.690727234 -0.112961225 -0.043002039
-8.472467422 -5.171640873 -1.413132787
1.174396157 -4.215188503 -0.011079236
0.329850405 -1.365360260 -0.259368956
1.346935153 -0.191071332 -0.476845354
0.180328026 2.193423271 -0.469410837
0.266862810 -0.164002895 -0.751173973
0.688989997 0.768318057 1.024092913
-1.224732041 1.086342692 -0.730055630
-2.275551081 0.967158794 -0.252387017
-0.919523954 1.543045640 1.337591410
-1.859213829 0.788833439 -0.399994701
-3.032332420 2.168833971 1.550339699
-1.394245625 1.055789351 -0.104115590
-0.685932279 0.996634603 1.460618615
-1.908936143 0.439500153 -0.780234754
-3.121318102 3.060624361 1.736713648
-0.893442392 2.751858234 -0.422375739
-3.472251654 2.793906689 1.226646781
0.658371747 1.381920338 -0.742491722
-0.803903401 1.958432078 1.477847099
-1.469081759 0.972255409 -0.386259019
0.045766879 -0.088573672 -0.264267802
-0.830503166 -0.495752215 -0.293476522
-1.870887280 0.800592959 -0.404328853
0.078639992 0.347762346 -0.241522878
-1.874186993 0.635523200 -0.223986417
0.097331293 -0.280161113 -0.292483896
1.578873396 2.501600504 0.025056846
-0.692841351 -0.385205626 -0.801520109
0.135989636 -0.103800200 0.145561829
-0.466106117 2.491864681 0.797477543
1.326083302 0.786339879 0.419306606
-1.696334481 1.460107803 0.084409706
-2.079408407 0.824999690 -0.860338271
6.169646263 3.990050554 1.171339869
-1.848902345 0.652681887 -0.215698943
-1.854557991 0.819797039 -0.431919128
-5.458639145 3.376585007 0.871074617
-4.397082806 4.549615860 1.261049867
0.212140754 -0.164502770 -0.283606619
-0.076114684 -0.264278620 -1.723510981
-2.310068607 1.238814235 0.099659294
-0.966613531 1.089297295 -0.203661487
-5.248568058 3.230646610 1.200394273
-1.927513123 -0.127895147 -0.828539073
-0.962452650 -0.288206011 -0.574015677
-1.169272304 1.291254759 0.129935294
-3.408488989 2.726455212 1.195671439
0.107596911 -0.163616106 -0.277831584
1.471582651 2.669906855 1.149275780
-1.821707726 1.669450045 0.328153789
-0.633420587 1.352773786 -0.521002412
-7.580251694 6.797764301 1.248593926
0.518187106 4.464818478 1.278429627
-1.866195560 0.619981229 -0.226522788
-2.820266724 2.008289099 1.422924519
0.307448298 7.653312206 0.964052379
-0.346879631 6.434757710 1.298575401
0.179753497 0.058056582 -0.240515083
-0.882751048 0.667362511 -0.507970631
0.096056737 -0.008912149 -0.203357384
-0.778163373 1.209048510 -0.262850672
-2.384533405 0.776957273 1.129109979
0.297577888 0.561796188 0.422487736
-0.783464968 1.411496997 -0.197320089
-4.295840263 2.289029598 1.246679783
1.424520612 2.299953222 -0.037532594
0.375404716 3.488642216 0.983453155
-0.410943568 1.891462922 -0.177900732
-0.955488980 -0.244044691 -0.778154671
-0.497097641 3.274247169 0.038658466
-0.119419202 0.810305953 -0.330759138
-0.830809951 1.083746791 -0.107730746
-1.447383642 0.003210814 -0.787669837
0.789643168 2.410195112 0.074093275
0.423035532 3.205751896 0.151650846
0.030131556 0.388124138 -0.278195560
0.215230867 -0.144631669 -0.287215441
-0.898245871 1.037085772 0.009764756
-1.338458419 0.558031082 -0.517241895
3.858909607 0.614244282 -0.050552048
5.759434223 2.333412409 1.017751336
5.889981270 2.803203106 -1.501561642
1.390311241 -0.318293989 0.192909479
0.147542045 0.115626045 -0.188930973
-0.001725062 0.017793365 -0.734279335
0.305495918 0.478419423 0.420285314
0.834404051 -0.340992033 -0.261788905
-0.830615461 -2.201189756 1.048542142
0.004770758 -1.825128198 -0.212007985
-0.966122985 -0.330611169 -0.610770345
0.288742810 -2.823462486 1.320546985
-5.582880020 3.099776983 1.336882830
-7.426227570 2.354747057 1.238378406
1.396996617 2.835759878 -0.148172036
-0.607940376 -0.528547943 -0.323191285
0.374453992 1.679359913 -0.869626880
-3.009305239 1.108947515 0.127262369
-0.183545679 0.357853979 -0.281355679
-0.667895377 0.971914113 1.447896004
0.601224005 1.814989805 -0.397062659
0.366605401 1.617716432 -0.471624911
1.129576325 2.698833704 1.170037389
0.220868260 8.663826942 1.388970613
0.585854530 1.610893488 -0.123924211
-1.551982522 0.803281963 -0.221528262
0.636400282 -0.165275693 -0.698747814
1.583180666 -0.861678421 -0.246061265
1.023487926 0.231110543 -0.759847105
0.329546452 -0.876094639 1.474111319
1.920385361 -0.499201089 -0.219636604
1.905991316 -0.485208154 -0.222426161
1.258131742 -0.217650890 -0.273544729
0.351792514 -0.095767058 -0.946779907
0.419617683 -0.100609899 -1.305932879
0.032968346 0.260475814 -0.274477452
0.041527048 0.276860952 -0.272147804
2.578435659 0.103160650 -0.283278495
-0.631667018 -1.590728283 -0.714784563
-1.543374658 -0.631954491 1.094700098
-3.998800993 -0.905778885 1.326829791
0.073728248 -0.136758417 -0.266538739
0.094978131 -0.279961139 -0.296080291
1.358247161 -0.920736730 -0.209734797
-1.060563087 1.208973885 0.267771423
-1.663327456 -0.716921151 1.112700343
0.242490888 -1.357042670 -0.646772861
0.131047815 0.132533982 -0.284373969
0.435204327 -0.087994091 -0.291314781
0.095614217 -0.016335705 -0.204700589
0.183457315 -0.134492889 -0.277901471
-0.018316509 1.742969632 -0.351407707
-2.467756748 0.816462576 1.187041402
-2.143208742 0.384009063 1.496479154
-5.302651405 -2.943631411 -2.300922871
2.084883451 0.869528353 -0.211728007
1.438987732 2.707185030 1.173941612
1.768246651 2.164063215 1.276379585
-1.344583750 1.209513664 -0.037038449
-0.053860821 2.185469151 1.292506099
1.122654676 1.150012851 -0.402387083
-0.138380796 1.931241870 1.342440486
-3.238622904 2.686684132 1.195476055
-2.321541786 4.230751038 1.598092198
1.247114897 1.893727541 -0.413621336
-3.769928455 3.314847946 1.552231550
0.070277795 -0.294627935 -0.316486835
0.195617169 0.062880501 -0.215321526
0.291057557 -2.984894514 0.043968465
-4.315265179 -4.517277718 0.982567489
5.367649555 -5.200571537 0.969738662
3.754153490 -1.926064372 1.136196613
-13.816613197 -12.990939140 -1.014414549
0.226703241 -0.213648260 -0.457289964
0.188641623 0.061821658 -0.194651157
0.024705961 0.509524465 -0.321119577
1.518125057 -0.516823471 -0.769362926
0.738307238 1.678017974 -0.247657269
1.019053936 0.866229713 -0.745919347
-3.303914070 9.502370834 1.963376641
0.620052814 2.331402063 1.367169261
-8.351153374 2.340093136 1.240764499
-0.529547334 -0.716687083 -0.300772220
-4.054924488 0.747367799 0.742761552
-2.219610453 4.342010498 1.613489747
-4.114443302 0.944584787 0.785924852
0.311244518 8.127900124 1.265930057
-3.515558958 1.294124484 0.141115040
1.301126003 5.370626926 1.250776410
-6.652039051 3.084089756 1.170410514
0.433773130 -0.090162680 -0.279591590
0.297680289 -6.954018593 0.445257276
-3.282173395 -3.486578465 0.995319545
-1.570269227 -0.064939678 -0.063774675
0.036614105 0.389381200 -0.270584852
0.453420401 0.213644549 -0.758475482
-1.489113927 1.406490088 0.166043162
-2.405874491 0.702829838 -0.216114268
-1.197798491 1.293774843 0.039748885
0.496986359 0.146596029 -0.847357452
0.011769416 -0.085340165 -0.292784691
1.529061913 1.596212149 -0.049077298
0.261438102 7.883686543 1.240259171
0.208122790 -0.172701553 -0.272562742
-1.621387720 0.929177642 -0.440836370
-3.614240408 4.180125237 0.900414944
-0.487906605 3.379136801 1.045313478
-4.357866764 4.547183037 1.271330237
-4.033283234 0.797950387 0.755876362
-1.699894905 -0.694791079 -0.057604987
1.555074811 -0.787288845 -0.231446475
0.316418231 0.246216044 0.210431725
-3.889636278 -4.882286549 1.120155811
-2.180665970 -2.726766348 0.484310478
0.219375223 -0.157330662 -0.277440459
-0.044319332 0.709830523 -0.770894825
-3.123414278 -0.171502113 -0.063488178
2.737939835 2.592787027 0.215359077
-1.412423015 -0.128031865 -0.386244327
-0.315172881 0.546224833 -0.779095411
-0.576521456 -0.221618459 -0.692456007
-1.841395378 0.807686210 -0.417253286
-0.539730966 1.221433282 -0.232484549
-0.222294927 1.404349566 -0.198507339
0.802490890 1.743351936 -0.118018769
-0.003439005 1.703172565 -0.659570873
-1.246992469 1.313920736 0.166464359
-0.818576634 -0.495051593 -0.290517569
0.004863329 1.745010018 -0.680266500
-0.573212862 -0.404586524 -0.301603794
-3.721982002 -0.416365951 0.122330159
4.899287224 -0.833024621 0.158610255
4.568056107 3.174149036 -0.297212124
1.493663192 1.845066190 -0.523036718
0.762489140 1.487247348 -0.415317714
0.457656145 1.941205621 -0.148623347
-0.026410162 0.734766126 -0.269142538
0.393535942 -0.061924551 -0.791539788
0.096616842 -0.155102670 -0.253299952
0.336941034 1.645459294 -0.719835341
-0.956973791 -0.293359011 -0.576438606
-1.663322687 -0.055106685 -0.477995157
-2.131128073 0.329343379 -0.339893252
0.445336133 0.744540691 -3.780769110
0.180385515 1.643761873 -0.119974874
0.357319266 1.649461508 -0.472042054
0.861910164 -1.274722695 1.290453911
-0.800114095 -2.697339535 -0.701001883
1.121608973 -1.044544935 -0.259218454
1.934618473 -0.651968241 -0.430226505
1.602821350 0.098816916 -0.751258135
0.148152933 0.118598014 -0.221873865
0.049748659 0.073011830 -0.286769927
3.478897095 2.665112257 0.093942203
-0.564702392 1.203307152 -0.163720936
-0.782062590 1.478723288 -0.594138205
0.191939846 0.752913117 -0.336299032
-0.930635989 -0.511386275 -0.405024111
-0.789467931 1.394496202 -0.186771169
-2.702848673 1.919856668 1.335577130
-0.746402383 1.160023212 -0.133628830
2.094325542 -0.294369280 -0.657215774
0.946472526 -0.330257118 -0.768546164
-0.387758076 -0.719356954 -0.324034840
0.238867775 0.561170042 0.231296450
0.024861155 0.293441981 -0.277557909
0.032400612 0.294426858 -0.277379751
-1.618750572 -3.872504950 0.762627482
0.337693453 0.803956687 1.385258555
0.039432820 0.382497400 -0.272823721
-2.488980532 -3.133087873 -0.204415485
-0.239002213 0.337975889 -0.249338031
-0.670321703 -0.564482868 -0.343700826
-2.916608334 0.272420675 0.319746405
-1.898149848 -2.963716030 1.067306161
-0.883719385 -1.327516794 1.226846099
-1.209186435 -1.620817542 1.427858114
-2.519173384 -2.119995117 0.240110427
-2.168676138 -2.743097067 0.143205494
-5.332357883 8.499913216 1.275559902
-0.706902921 0.465939581 0.002755096
-0.234000698 1.612194657 -0.232372537
0.214466110 -1.371881008 -0.735505700
0.919566751 -0.562812567 -0.677856088
-0.139021367 2.775362968 0.570225120
0.583815515 1.153501391 -0.882063866
0.479283184 0.483499199 -0.392528206
0.113639213 -0.162367091 -0.253973454
-1.873593450 1.112209320 -0.801049352
-1.647417426 -0.707357943 1.117373586
2.854937792 -0.851720095 1.036346436
0.017488889 0.264697701 -0.280036986
0.372613698 -0.090389274 -0.404803216
-0.884193182 -0.454124361 -0.251015544
0.093100153 -0.141962871 -0.248283729
-2.278579235 -2.865075588 0.467300117
0.890039027 0.139913782 -0.963589907
-0.864422917 2.553887367 -0.366009891
-1.417059422 0.956878781 -0.381447405
0.864105880 2.179021835 -0.325285643
0.549161971 -0.792071581 1.550757170
2.236503363 -0.353687227 -0.126681998
0.399649709 -0.110693902 -0.833092988
-2.267628193 -2.296360016 0.311390191
2.548783302 -0.208763614 -0.753305435
-0.926745892 0.473698944 -0.497978806
-1.589071035 0.044771928 0.052920938
1.987385750 0.379879445 -0.585189641
0.507730782 -1.489598393 -0.740674019
-1.911336899 0.436719775 -0.787871718
-1.733811736 0.274120808 1.280050397
-3.316186428 0.357498169 1.192520499
-3.848142624 0.327468276 1.175252318
-5.563970566 3.135780096 0.877004921
-0.448355585 1.687055111 0.605520189
0.583427429 -0.360127896 -0.376851857
0.594197929 -0.299075782 -0.306891114
0.592241943 -0.325526804 -0.335672289
-0.534871161 -0.552481174 -0.462548465
-3.295566559 -0.452281386 -0.185905382
0.311651051 -0.870423257 1.459324002
1.223857403 0.754126072 -2.247110605
-6.894673824 2.800621986 -6.965774536
-0.379567176 -0.383085877 -0.574016333
-1.576471686 -0.035234772 -0.515173852
0.807303011 -0.282491297 -0.660532355
3.390353203 2.871211767 0.781006515
1.198213100 -0.068713121 -0.720624983
0.975287974 -0.198786467 -0.690881014
0.082315274 -0.255092263 -0.291949511
-0.256144375 -0.617282927 -0.837649822
1.941944599 0.132441193 -0.351676136
0.475524068 2.019875288 -0.155924395
0.072198749 -0.136781931 -0.259969682
-0.923185766 4.310742378 0.205097109
2.723248482 0.300707638 1.238860488
0.756447732 1.592687726 -0.700162113
2.399954081 -0.475520343 -0.269171149
1.555587769 -1.259350300 0.001828265
-0.529077351 2.919990063 0.132742375
-0.046071142 4.387438774 1.139752984
-3.488581419 4.349936962 2.776352882
0.237704173 2.223766327 -0.058065545
-4.753290176 9.103770256 1.816496968
0.923674822 -1.231429219 -0.348589480
-5.452740192 -1.619308829 0.957290769
-4.640478134 -3.437738895 1.020929813
-3.234132290 -3.432695627 0.978736162
-0.138065249 0.284589112 -0.318738073
-0.363766372 -1.842397571 -0.840726674
-0.560492635 -0.838064492 -0.260887176
1.778974414 -0.007278133 -0.588493347
5.119014740 -3.289899111 0.174312994
-0.493674695 -1.753234267 -0.138586983
-1.606835008 0.918398619 -0.435829461
-21.941093445 2.905944109 5.482958317
1.018988609 0.240409359 -1.368197083
-3.678308487 9.416256905 1.351539850
1.260262847 2.189516544 -0.129279673
-2.445890427 0.800216377 1.163162827
-5.850408077 1.627491951 0.933822036
-0.040223520 0.698061943 -0.749499619
-0.182753071 0.355944037 -0.283417314
-0.087798730 0.415829509 -0.279921800
-6.543277740 -1.624515295 -1.031621218
-1.370962858 2.400797129 -0.267768949
-2.435175896 -0.581558466 0.226855591
-0.562624454 -1.668625951 -0.836997151
0.255151510 -2.552847147 1.195837736
-3.256840706 2.264556646 1.617860079
-0.889753520 2.066745758 -0.091712080
0.508180201 4.648173809 1.236530304
-1.886281610 0.710898638 -0.790456355
0.650368214 2.621289730 0.161141485
0.947742403 0.838982224 -0.733582914
0.219118416 -0.161212385 -0.280802786
-5.717628479 -1.740684271 1.098180413
-1.918155074 -1.479675531 1.106588721
-1.842421889 -1.441310406 1.065513492
-0.792691827 1.076721549 -0.096620359
-2.909521103 2.077420235 1.472330332
-1.943224788 0.486928314 0.050030738
0.274796277 -1.503219247 -0.625673413
-1.839995503 3.608529329 0.209037110
-1.542329311 -0.664153755 1.095406651
-1.694397807 -0.119537197 -0.039492462
-4.303946972 -2.079684973 1.043146253
-5.919053555 -0.239817560 1.161567807
-3.982385159 1.403064847 0.483973622
0.032141257 0.304827720 -0.280336350
0.093562983 -0.002048479 -0.186074242
-3.794410706 -0.628006458 -0.115393572
-3.437228441 -0.657360196 1.136101246
0.295272827 -0.614180148 -1.053426027
0.313475460 0.431315690 -1.223409534
0.080807813 0.375459135 -0.705389380
-0.119592980 -1.649991989 -2.795007706
-0.014305213 -0.568898797 -3.575128555
0.013436769 0.263751566 -0.278431118
0.038292814 0.280900121 -0.281294495
0.268943638 1.603378654 -1.163468242
0.086693704 0.373038828 -0.700207889
0.261232406 0.668985307 -0.303558677
0.796870649 0.634627461 -0.332614154
0.390335977 -0.110302068 -0.810371459
-0.077464476 -0.965149403 -0.280866325
1.286541462 -6.474492073 1.111755490
2.255772829 0.587990344 -0.245356306
2.115773678 -0.206939310 -0.651436150
-0.921763062 -0.249549627 -0.766138673
-1.438328385 0.032048564 -0.225315675
-2.703002930 0.185806677 -0.803611815
-1.455853105 -0.076787561 -0.521180928
-1.642799497 -0.276130766 -0.635275006
-4.944541454 7.820640564 1.229987144
0.309863687 2.194796562 -0.154449284
-2.115807533 0.144790486 1.483856559
-0.955624223 -0.288317233 -0.482706875
3.556737423 -1.881119967 1.048393965
-0.794497430 1.343175054 -0.188971356
0.368675321 -0.124437205 -0.462914824
0.326067150 -0.278180987 -0.719878018
-0.033891745 0.053311892 0.033616580
0.882051945 1.455652833 0.720652282
-0.851650298 -0.448378950 -0.248738602
-0.583097637 -0.413828045 -0.280749351
0.337269306 -0.668553889 0.365627080
0.033943176 0.279856682 -0.282060862
0.756342709 2.482785463 0.147522807
1.214216709 3.903031111 1.485051751
-3.847142696 4.067308426 1.125825763
-0.648813546 0.349727154 0.511981785
-1.159729362 0.014269072 -0.051760893
-2.521380424 -2.204864740 0.235431045
-1.521580338 0.810649276 -0.265494019
-4.132410526 0.982620597 0.796567738
-1.878594995 -1.247474074 -0.925593972
-1.329912782 1.105157971 -0.179107487
-0.214159459 -2.321407557 -0.765751064
1.125537157 -0.564789236 -0.206890494
1.058073997 -0.208916411 -0.329382062
0.724876940 -0.295202881 -0.611513674
0.039048310 0.600842237 -0.449345112
-2.100398064 0.157754064 1.485683918
-1.042428732 -0.817767322 -0.608484030
-0.183102652 0.355578214 -0.282045573
-2.008129358 0.317638367 -0.222810388
-0.028385011 0.723984241 -0.272933424
-2.873653412 0.331762850 -0.443184853
-0.596612334 0.904457152 1.466590762
-0.765104294 -6.820450306 -9.695775032
1.788783669 16.281864166 -13.246950150
0.083818801 0.795437694 -1.000334144
-0.237344056 -0.903556824 -1.030042410
0.280658096 -0.396349072 -1.277526140
1.751094937 0.687163472 -2.378629923
-0.082406543 -0.717084944 -0.815757692
-53.592967987 -39.208965302 2.910465717
-0.424394727 1.931509495 -0.175329208
-4.299524307 1.170203447 1.190518975
-0.796741188 -1.805327296 -0.840672851
1.745485544 1.198789835 -2.064841270
0.100260280 0.001573530 -0.178922817
-0.179070562 0.852455318 -0.305208087
-0.925180614 -0.869984329 -0.569078803
-0.739667356 -0.756568730 -0.475678712
-0.345535755 2.598092318 0.813247442
-0.759580493 1.458643198 -0.281046152
-1.001132607 1.662851572 0.021650208
-5.036221981 1.968814731 0.369839072
-0.959516525 4.637939453 0.166368678
-4.973062515 2.907753706 0.776539981
-5.918748856 3.836904764 0.962075293
-8.020408630 0.133601263 1.057685137
-0.812001050 2.801120996 0.920202076
-4.400847912 1.220419765 1.255125403
-1.229482174 -2.516656876 -0.640434384
-0.440393180 -1.809058905 -0.366121173
-3.959832668 0.921551108 0.506843090
5.687608242 2.387916088 -0.342300594
0.142104417 2.089455843 -0.073547646
2.166408062 -0.294685721 1.302616239
3.488296270 -0.772428274 1.320204258
0.730203569 1.928269982 -0.278589159
1.327664375 1.528865099 -0.715238750
-0.860041499 -0.422319323 -0.244796559
-0.087945290 2.129242897 0.076382264
0.002819678 -6.666269779 0.439602047
-3.175671339 -0.697249711 0.264147818
-2.882856846 0.020055512 -0.731594265
-1.762477994 -2.613613367 -0.183323845
0.751370132 -0.287927032 -0.303562760
0.141636074 0.355718970 -0.649329901
-3.495095015 0.420836061 1.044630170
-6.374025345 -2.151801348 0.874724984
0.809577048 2.490860462 0.078307897
-0.638798773 -0.377032191 -0.452102363
0.869849801 0.667239964 1.125736833
5.990703583 2.080855131 1.597960353
0.183042377 0.702776313 -1.338568687
0.976167798 3.097851753 -0.464787424
0.168726251 -0.127952784 -0.207534179
8.054411888 16.726356506 -9.976569176
-0.421894103 -0.458812088 -1.643308640
-0.109177880 0.212769106 -0.283121794
1.789584637 -0.485931069 -0.181408644
2.089826345 -0.606178641 -0.233052075
6.945231438 -1.272679687 -2.299941063
-1.443657398 -0.031502690 -0.087195300
-5.002275944 -0.504040003 1.120144129
-0.128283381 0.393638223 -0.272318065
-0.104368336 -1.185682774 -0.698685408
-1.410596132 -0.498320967 1.451433063
-0.075837471 0.296469778 -0.281645149
0.379563421 -0.045659665 -0.402005881
3.381538868 2.607079029 0.233694822
-1.633881092 0.893365562 -0.705869317
-0.965177417 1.642654657 0.098310940
-0.594724417 -1.786976695 -0.676843226
0.519074678 -1.157623053 -0.244001031
0.147078708 0.115671940 -0.187618092
0.031027529 0.063898519 -0.220546335
-0.027105903 0.719178557 -0.221218854
-0.028276697 0.720036268 -0.222070068
0.847410679 0.341218978 -0.646529794
-0.021308213 0.712792575 -0.230486661
-1.713431954 -3.513353825 -0.291720271
-0.109696217 0.914583087 -0.157752946
0.689282835 1.731188297 -0.696913481
-0.371352851 0.784600794 -1.029148579
-1.656298876 -0.668181419 1.650648236
-2.551748514 0.167055696 -0.614884377
-0.170528337 -1.117465734 -0.334052145
-0.157501206 2.085501671 0.108841047
-3.908906221 -3.468329430 -23.721902847
0.420534909 -0.019091565 -0.245054141
-2.793612480 -1.221887231 -0.079230569
-0.603982925 -0.634391487 -0.721219420
-3.849462509 0.936628342 0.498412997
-0.274002731 1.214707255 0.322292715
-3.621188641 0.162969694 -0.158809677
2.785365343 -4.356784344 0.107911676
5.603660107 -0.987575114 0.033050235
2.878717184 -0.217138842 -0.227353022
-0.836449802 -0.505955577 -0.291521251
0.046149120 0.277876198 -0.279687613
-0.727921009 1.321265340 0.158863664
-0.921846390 1.606308103 1.197830796
0.315276921 -0.155939102 -0.673354030
-2.235584021 4.143522739 2.767440319
0.847767770 -0.279714733 -0.265935421
1.024049520 4.256012917 1.001346588
-1.474880338 9.272041321 1.263925433
0.253036231 -0.181581974 -0.308599383
2.464702129 0.349332005 -0.630830526
4.942467213 1.374460459 1.056202531
3.171945810 3.036732197 0.218322888
4.199656487 3.900058270 1.215563774
-0.326963037 0.978589773 -0.664253592
0.815069318 2.326672792 -0.383053154
-3.831814766 0.342554718 1.153231740
-0.390108258 1.304357409 0.503226697
0.407631576 0.553859591 -0.614527881
0.694176257 0.573470950 -0.154169545
0.030864757 1.452873468 -1.679681540
-1.061015725 4.739157200 -5.863580704
-0.160405546 0.555556297 -1.122183323
-2.832450151 0.888752401 0.125098482
2.218547106 -0.068457216 -0.459966600
1.040327072 1.345126629 -0.478683501
6.244102955 2.715302706 1.037547350
0.651421130 2.519686460 0.147437170
2.748183727 -23.346487045 -5.474345684
0.598349690 0.548633397 -0.361986220
0.681175590 1.799003005 -1.386466861
0.455869913 0.495207101 -0.304173976
-1.124862194 -0.987117171 -0.635767281
0.464815259 0.498228550 -0.402612060
-2.441093683 -1.130326867 1.121325135
0.298226118 0.455366135 -1.233978987
0.371309757 0.521190584 -0.573573411
1.575969934 2.358210325 -1.429064989
-0.327884763 1.507202744 -1.932667613
0.271743476 0.484243393 -0.552223384
0.290169001 0.763959587 -0.909247279
0.927644730 -0.289634526 -0.266005814
-0.059965361 0.079925202 -0.295981199
7.083225250 2.620243549 -0.613035917
5.328443527 -7.649844170 0.779733121
0.195653275 -1.326982021 -0.709271312
-0.295875639 0.633130848 -0.281829119
-0.584561050 -0.980302095 -0.320478827
0.436349899 -0.083751954 -0.285643429
7.546069622 4.034394264 0.550218284
-4.351645947 3.359432220 0.510248601
-2.463180542 -0.485453784 1.097004890
-2.155216694 -2.756228685 1.129191041
-1.945659637 -3.070611000 1.080353737
0.235933244 -1.480623007 -0.661213517
-2.729112864 0.891231656 0.082888491
0.070910707 0.026996981 -0.287493259
0.931712925 0.409873933 -0.631949544
0.288924605 0.478239775 -1.310069799
0.297598451 -0.244995326 -1.500071764
0.037945215 0.387643665 -0.276960909
0.144138157 0.116031289 -0.186049074
5.208111763 1.116302729 -36.574775696
-4.795764446 -0.446195304 1.083119869
0.061346024 0.596328855 -0.321079701
-1.274223328 2.536814928 0.041910756
-2.068895817 0.449495941 -0.325272888
-0.864456058 0.940783083 -0.129620507
0.130234793 0.130951673 -0.282795608
-5.072177887 -0.560899734 1.113272071
-3.301757574 -0.684788704 0.263966471
-2.183170319 0.364985615 1.518722892
-1.847973704 -1.459772825 1.070473552
-3.342820644 -0.720245421 0.267334372
-0.361202717 -2.046671629 -0.192657977
-1.101475596 1.295217514 0.025688944
-0.032234710 0.439114034 -0.278232932
1.577431440 -0.937122226 -0.074452959
0.688586175 1.428409576 -0.474524289
1.308680892 3.311034441 1.374957561
0.828322947 -0.302897483 -0.277680695
-0.075868160 -1.453808308 -0.595153928
-0.562357903 -0.765047967 -0.742979109
0.101862319 -0.137776032 -0.287522137
-4.247272491 0.753502071 1.242426991
-3.234945297 -0.657347083 0.252998680
-3.047831059 0.097941704 -0.311649740
-0.228952721 -1.287110209 -0.883169353
0.416630447 -0.061157890 -0.282972217
0.097641893 -0.162036151 -0.258003742
1.060624480 0.443486840 -0.768115342
0.316549689 0.408847749 -0.447567850
0.349466234 0.758410335 -0.507924676
0.376098245 0.498079181 -0.530293345
-3.045481443 -0.635369658 0.243687093
-1.149939060 -0.024851773 -0.302308500
1.667203665 -0.040594582 -0.749786377
0.378686309 -0.123489261 -0.289330542
0.307508886 -0.541534007 -0.965556026
0.970300913 0.447513819 -0.695470691
0.375733495 -0.154175296 -0.965337336
0.009799929 1.227987051 -0.609437168
-0.097931325 0.398339778 -0.280138403
-2.459034681 -0.463523924 1.113490224
0.188365370 -0.133913293 -0.257356942
-1.304045320 2.043625593 0.792955816
-2.240607977 4.184612751 -0.356985867
-1.299899936 1.212225199 -0.018650439
-3.284751892 -0.586951435 -0.037867486
0.981407046 -0.661657572 -0.341294259
4.130300522 3.429615974 -0.332101673
-0.707492888 -1.803665638 -0.136724100
-3.227119684 0.243494600 0.483049899
-3.442942858 0.677254379 0.476124823
-0.573833227 -1.280370951 -2.944357872
-2.483394146 -2.209247828 -0.097757898
2.126575470 1.071729660 -0.307117999
1.767157435 -0.295192629 -0.738754749
-0.241036430 -0.626083672 -0.834593356
-0.387258619 -0.630316257 -0.305877864
2.146024227 1.069401145 -0.720917702
-0.704568028 -0.391430378 -0.759130239
-3.666530848 0.710116088 0.506167829
-3.801218033 0.150867611 -0.184687957
0.224338993 -1.522769570 -0.712516904
7.404478073 1.902688622 -52.064723969
0.853654683 0.413863987 -0.350111336
0.036946446 0.384973556 -0.272138536
-0.405216604 1.036717653 1.391048908
-3.535362720 -0.264151394 0.168429986
-1.598078132 0.947004437 -0.628216207
-5.078641415 -0.627941847 0.981169760
0.129590362 -4.044750214 1.015358210
-1.685902596 -3.843517303 -0.001884559
-0.611917436 0.749621570 -1.853204370
-1.637648702 -1.102582812 -0.051893249
4.743503094 -7.221816063 0.827629507
0.312383205 0.665234685 -0.698619068
-0.471569002 -0.854031742 -0.272555441
-1.694004178 -4.299683094 0.632111549
-0.995207906 -1.684327722 1.407696366
0.753277659 1.492109776 -0.404040903
1.581292868 1.612071157 -0.683952332
4.787570477 -0.793347061 -0.015187062
-0.344061375 1.775393486 -0.224693894
0.038724106 0.386159480 -0.275557667
0.485122770 0.439626455 -0.330134451
-1.626256466 1.114090800 -0.140884832
-1.074756026 1.074678779 -0.398882389
-0.849014044 1.019692063 -0.226177469
1.488083959 -1.615002275 0.012306193
0.579774618 -1.672346354 -0.549072087
1.899253488 6.944910049 2.533183575
-11.548915863 27.211374283 0.533435345
-0.943948865 -0.767643988 -0.674053371
-2.481264114 -2.402634144 -0.056293063
2.885375261 0.348926663 1.317089200
4.460694313 2.925891876 -0.536233008
2.821471214 0.068392597 1.215194702
-4.182765961 -2.004645824 1.047972560
1.878915906 0.547233343 -0.663416922
-1.185889125 1.143801928 -0.013112960
-4.143594742 -1.994056225 1.034106612
-2.127474070 0.948173225 1.322422028
-2.858128309 7.709967613 0.183219388
-2.021820545 -1.568501949 -0.109781586
-0.074233167 0.720696151 -0.424465835
-3.405936480 -0.401486486 0.168577000
-2.489857912 -1.152850151 1.134898305
0.054717429 0.296470076 -0.266346782
-2.513759851 1.415102959 0.036794521
-0.177197307 0.354781151 -0.279373854
-1.199757576 -1.054488778 2.049998999
0.405919880 -0.133706480 -0.475603133
-0.212744653 -3.230851173 -0.041786663
-0.560213506 -0.482920080 -0.321157575
1.181172729 -0.323446393 -0.383809835
0.039359700 0.385269582 -0.272279441
0.005954722 0.047149640 -0.287832975
-1.124516487 1.661038280 0.210122928
-1.267213702 -0.462921917 0.112093002
-0.466781825 -1.756957412 -0.124744311
1.473471522 -5.381203651 0.016718706
0.989234030 -1.284005284 -0.128690362
-0.075958580 0.294223487 -0.283919722
0.133386567 0.136195078 -0.284210593
-1.114570141 1.813718438 0.036939193
-0.935756624 0.983917832 -0.145138666
-0.891769350 -0.448977739 -0.617234290
-1.131321549 -0.003652105 -0.312327355
-0.785548687 -0.252709866 -0.293239653
-1.627276182 -0.692829311 1.119395494
-3.459409952 -0.396067888 0.168491110
-2.462484837 -2.134957790 0.228057250
-0.932598889 1.508669972 0.176273659
-1.390880346 -1.873903155 0.839565456
-1.249798298 1.018082142 -0.128330320
-1.070259094 -0.041394692 -0.243943885
-0.183757722 0.361684442 -0.279539317
-1.614818811 0.885398209 -0.602372944
2.579923391 -0.204979986 -0.760006189
1.965496778 -4.032882214 1.346524239
-0.153289020 0.378932863 -0.287460715
1.868688822 0.366295755 -0.644506812
2.558800936 -0.233150050 -0.365868092
1.799658298 -0.501414716 1.280079961
2.356173038 0.021851568 -0.577866137
-0.068720646 -1.682354569 -0.304563344
1.950875640 0.563231826 -0.219895825
4.793509007 -7.274704933 0.863351941
0.567558527 2.165275812 -0.156498387
-0.116875991 0.392828315 -0.283488095
-0.300286561 0.473452032 -0.489822805
0.169644907 0.143951371 -0.211484998
-0.018980285 1.689830899 -0.405106425
-0.424644738 1.930131555 -0.175586045
0.011936585 0.568490922 -0.953602195
1.619983792 -0.032130994 -0.722942114
-0.075649194 -1.380032659 -0.584959388
1.163154483 -0.069759682 -0.279031038
0.339980185 -1.529919147 -0.287405163
0.420877248 -0.315280825 0.576438487
-2.417676210 -2.197392702 0.179521918
0.351513863 0.024453418 -0.699732780
-0.951966047 -0.256229341 -0.780965984
-1.935846329 -2.797800779 0.527313054
-2.563077927 -2.226836920 1.104300737
0.172306299 -0.222545624 -0.330845118
-1.008671641 -0.232136622 -0.319691598
0.393675447 1.107877374 0.667108297
-2.069781780 0.346979886 1.446270108
0.353173792 -0.108456090 -0.382419825
-0.542880952 -1.239675879 -0.433001041
-0.140597880 0.299479127 -0.302284241
0.189889029 -2.210783243 1.089767337
0.647705376 -0.192362472 -0.726941407
3.522203207 -2.044975281 1.915908575
-0.192909688 1.571658134 -0.181795195
1.780179977 0.219152376 -0.199642941
1.773224473 0.548817396 -0.201565489
-0.033656541 0.747727454 0.288261563
2.418585300 0.047700353 -0.351743698
1.724668741 2.106148481 1.255642295
-2.497481585 0.215153560 -0.731330276
-1.316130877 -0.522687316 0.095311426
-9.091896057 -8.751935005 -3.356920242
0.330529779 -1.535241008 -0.286928892
-0.407155663 -2.268533468 -0.187368616
-0.060576785 0.400850266 -0.283844858
-0.670143247 -0.419653684 -0.321598589
0.562476456 -0.820596516 -0.490170807
-2.361004114 -2.009355545 0.216836125
-2.534284830 -2.155023098 0.223849460
0.205305785 0.730458915 -0.084243178
-0.454965413 0.816824794 0.003038108
-0.233880088 0.545549810 -0.395610601
-1.625644922 -0.035077114 -0.467296124
-0.587007582 -0.509350419 -0.307405263
-1.509352803 0.828463018 -0.059973598
-0.700651407 -1.853943348 1.173437357
-1.372606039 1.054062605 -0.151746795
-2.458232164 0.222370490 -0.283158809
0.063975543 -2.457399130 -0.278865725
-0.034638196 0.723863780 -0.208994046
-0.144096881 0.387291491 -0.278308451
-5.513679028 0.099463984 0.740522683
-2.086705923 1.612980604 -6.468894005
-0.024653351 0.742705107 -0.271185189
0.658611536 -1.516638756 -0.281314909
-0.760390520 -4.530220509 1.058477283
0.168401152 -0.971656442 -0.463816077
-0.679147363 0.988849044 1.442070723
-5.372377872 -1.587301254 1.093550682
0.555966854 -1.217032909 -0.356303602
-3.681653023 -4.566442490 1.083832264
-0.969640851 -0.310305595 -0.590301812
-1.495143890 0.996947050 -0.393421412
-0.370236993 -0.440467119 -0.613745570
-1.005612135 -0.229151979 -0.310688108
-1.291388392 -0.524817526 0.123138301
2.030658960 -0.413525075 -0.739635408
0.925128996 -5.504008293 0.931196570
-1.934975266 -3.157317638 1.088090420
0.371341676 -0.007900876 -0.393026769
-2.044807196 0.156087428 1.450544119
-0.754106820 -1.850116849 -0.519781113
-1.803120375 -0.776054740 -0.079395160
-2.011386871 0.451012909 -0.311800957
-0.114252016 0.208132908 -0.286196083
-1.220658898 -1.616268992 1.423967242
-1.534657598 0.820060134 -0.265161276
-2.156538963 -2.718445063 0.153459266
0.235622674 -1.406777978 -0.465280980
-3.643886566 0.173343703 1.187124729
-1.434624910 -0.161079615 -0.638776481
-4.584438801 -0.132361606 -0.650257170
-2.275808811 -2.900043726 1.163759112
0.429237783 -0.083693296 -0.285420179
-1.134175420 -0.983650982 1.968850255
0.230347946 -1.521682143 -0.296460211
0.054392088 -1.611843944 -0.288765907
-2.411667347 0.376646876 0.009048745
0.207629457 0.544685185 -1.677435994
1.134136796 0.083383955 -0.741910458
-2.475962162 -1.126317620 1.124173880
-1.811035275 -2.542116642 0.256345391
0.189710692 -1.424959540 -0.260477304
-0.833160460 -0.388352513 -0.268821478
1.015294313 -0.192579448 -0.139574051
-0.275287449 0.690332294 -0.270158768
0.926876903 -0.091009378 -1.935409427
-0.521996021 -0.686063766 -0.713210940
-0.435449302 -0.323171973 -0.563058436
1.212005734 -1.234415531 -0.301585674
0.843292236 -0.507677317 -0.919622481
-0.087368988 -1.419551015 -0.360095322
-0.952219725 -0.297439277 -0.577460468
-0.470446736 -1.755395889 -0.159964949
-0.024647074 0.737799227 -0.271445513
-1.741061687 -0.101874374 -0.522396386
-1.181378007 -1.646666288 1.431535363
-0.835857153 -2.266669273 1.075528145
0.446680427 -1.770356178 -0.314346194
-0.738423169 1.177842140 -0.008934435
-1.553526282 0.984995544 -0.618427098
2.541935444 0.363325775 -0.236841515
-2.157721758 5.445608616 1.749265432
-1.006851435 -0.320016712 -0.806380749
-0.970401645 -0.293383777 -0.313454926
0.541506112 -1.263640881 -0.609090209
-1.791885614 1.327686667 -0.840138316
-0.382752001 -2.105484962 -0.276341915
-1.609333754 -3.545650005 0.345289618
-0.516344249 -0.642732859 -0.695113242
-1.876049280 -2.676891327 0.505919397
1.746220231 -0.712757349 -0.787865877
-3.556412458 -0.126118436 -0.000649535
0.535782337 -1.157443881 -0.250964075
0.540670514 -1.154096723 -0.253472835
-0.021732541 0.743723750 -0.272448361
-0.768504798 -2.012557507 1.239115000
0.096759416 -1.704525113 -0.303415507
0.700112700 1.556563854 -0.352718264
1.937712193 -0.438488245 -0.062531523
0.588976502 1.760115385 -0.318491310
-1.005339503 0.998947978 -0.775579989
-1.688878655 -0.704380572 0.111139387
-0.747029006 -2.169976473 -0.761789203
-0.025737286 0.740872324 -0.269547254
1.392872930 0.014948964 -0.886700690
0.019003978 0.620462716 -1.463114023
3.439670324 -8.387660027 0.799824238
1.920111656 0.408060402 -0.201909035
-2.246234417 -3.269158602 -0.228135705
0.384057820 -0.055258662 -0.418213785
-1.534108877 -0.221575737 -0.577598572
-2.734913826 -2.439815044 -0.042168934
-0.372288942 0.542748630 -0.282137573
0.361755878 -0.136949524 -0.769795299
-0.375754654 0.546647549 -0.278142899
-0.434035748 -1.848775148 -0.125789285
-2.542698622 0.720438063 -0.197554603
-3.256722450 -0.042445008 0.018769573
-1.969103813 -3.166929960 1.088438153
-4.634540558 -0.932011843 -0.726129651
0.508821547 -1.755963087 -0.312860519
0.596356869 -1.482229948 -0.523106158
-0.378518760 0.547028661 -0.279422700
-1.758713245 -4.104197979 0.012725731
-2.463441372 0.156779215 -0.597225666
-0.109172493 0.215619162 -0.284124047
-0.048631720 0.673954248 -0.580206990
0.105808295 -0.265969098 -0.305838883
-0.427619249 -0.357039720 -0.774695516
3.980000019 -2.502771616 1.106869698
-1.567984223 -3.473620892 0.464477926
-0.798998177 -2.277611017 1.100361705
-0.606765211 -0.512987673 -0.308163792
-2.115723610 -2.702689648 0.481323898
0.180343449 0.340532362 0.875191331
1.367076635 1.527482986 -0.432686836
-0.407584488 -0.332899868 -0.747347772
3.782975674 -3.088554621 1.132797122
-2.004297256 -2.531766415 -0.167059064
-1.460579753 -0.492353261 -0.029769288
-2.333758354 -3.402305841 -0.206302568
-2.322780848 0.241736919 -0.268142164
-0.048491873 0.940472364 -0.018911777
-0.353044808 -1.190536499 -0.325793147
0.352719396 -0.259706259 -0.323916942
-1.727329254 -0.707727134 0.128829509
-3.723694324 0.161376297 1.204637647
-1.644008279 -4.078384399 1.123593450
-1.735270977 -4.428083897 0.657569170
-0.963527977 -0.293691456 -0.315888435
-0.005818117 0.363007933 -0.283028811
-1.083484650 0.078772224 -0.465123534
5.005837440 -2.395514965 -0.665066004
1.838679314 0.377117306 -0.636100233
1.795637131 -0.489298493 1.278726459
1.853486300 0.359474272 -0.633376420
1.982964993 -3.842471838 1.330707073
-1.251541853 -1.070434928 -7.078948975
-0.572723329 -0.311207950 -0.767150402
-0.080148809 -1.349956155 -0.768595338
0.979852557 -0.346144795 -0.725674987
2.513850689 -1.200814724 0.792940259
-0.109166943 0.219327271 -0.285838574
5.949774265 4.037466049 1.192446232
-0.340180457 -1.950871229 -0.274429053
0.689890981 -3.687019587 0.102066070
0.257397145 -2.635493279 1.218795061
1.210542440 -0.366704434 -0.408293784
1.059121370 -0.247177318 -0.302474380
-1.804817557 -3.955825090 -0.193359107
-1.437752962 -0.047903083 -0.091701366
2.239598274 0.936389208 -0.232457563
3.485215902 -1.853132486 1.027720332
-0.342575788 1.949487329 -0.033984836
-0.925868273 -0.289453357 -0.451020658
-2.297560215 1.321430683 0.033621345
-0.972178638 -0.256456107 -0.778808236
0.057394277 0.688447833 -0.212644473
1.086727858 -0.181543216 -0.252159238
-0.864500999 -0.465954453 -0.256410480
3.673971415 0.366108805 -1.014267802
-0.840423644 -0.516657054 -0.069060817
5.146309376 -4.257924080 0.880228400
-0.586578548 -0.704877973 -0.386042565
-0.500970960 -0.471890181 -0.607140779
-0.595607519 -0.263451815 -0.726076663
4.549477577 3.103023529 -0.597994268
-0.073137566 0.843547463 -0.679670513
0.773978591 1.590082169 -2.262826443
0.292023271 1.240992188 -1.435753584
2.074456215 1.133605838 -3.910891294
0.822086334 1.643576860 -2.335608244
-0.790565610 0.534189284 -0.875557899
-0.067078814 -1.683132768 -0.302818835
0.508587778 -1.145440459 -0.233016789
-1.268416643 -0.484458327 -0.043113768
-3.503718376 -0.241124734 0.170869559
-6.185314655 -0.237654954 1.237672210
-0.620553672 -0.903692365 -0.295404494
-0.619098663 -0.902790368 -0.298325062
0.025998382 0.279685557 -0.278019696
0.123794116 0.132489845 -0.273651570
-4.149503231 -4.262365818 0.888299227
1.020021677 0.227923825 -0.755920947
-3.543039322 -0.338567942 -0.045762081
0.924029469 -0.293350905 -0.265872896
-1.298129439 -0.225675404 -0.792628109
1.562850952 -0.159878835 -0.754772782
0.262659281 -0.428382933 0.616048753
-0.436982721 -5.773169041 0.790230334
-8.559208870 -12.118718147 2.464960337
-0.462075621 -5.636794567 0.993922830
0.645251036 -3.363759756 0.106464662
-0.823786259 -2.298053503 1.090525389
0.042525027 0.070489958 -0.284469187
0.075545877 -0.262385696 -0.284715801
-0.005015958 -2.707929134 0.149808183
1.296877027 0.160197318 -0.145132139
0.705355585 -0.445297241 -0.250962764
-2.544046402 -2.063337564 -0.074243702
-0.367632985 0.538157344 -0.282535046
-1.272835255 -0.511420310 0.118193075
0.482956827 0.161965504 -0.827004015
-0.367695481 0.546841383 -0.275715053
-0.372046143 0.549485087 -0.276157141
-0.155843660 0.305258900 -0.281702548
-0.969508231 -1.392040968 1.285592914
0.407033384 -0.118322633 -0.825475931
0.616714835 -3.574864149 -6.952823639
-1.271179795 -0.496651530 0.111679003
1.514313936 -1.197455406 -0.001759920
1.021983743 -5.621141434 0.959998906
0.662404716 -1.011282206 -0.508848548
-3.695226669 0.193659127 0.201986074
2.484935999 -0.119843401 -0.337954581
2.775463581 -1.849219918 0.783059835
1.881176829 -3.549089432 1.229578018
-2.578960896 0.889660835 -0.677228093
-0.949597657 -0.324571371 -0.587281823
-1.312048793 -0.238049224 -1.010603547
5.599020958 -5.174246788 0.751017153
-3.301710844 -0.605855763 0.115462892
-2.089568377 -0.317013115 -0.671887159
2.112090826 -1.434413671 -0.364530087
-0.373031914 0.545057058 -0.278517812
-0.901635587 -0.103858814 -0.281674117
-1.698075891 -1.462608933 0.246987283
-1.696249843 -2.727152586 1.109481692
-1.657179713 -0.086099043 -0.550583601
1.386144042 -0.710815728 -0.226220891
-1.423388600 -3.459761381 0.012990230
0.776662230 -0.255660653 -0.226731449
0.000337591 0.074868195 -0.183546543
0.774942696 1.694199324 -0.106024384
4.899101734 -3.861452579 1.091625094
0.196271881 -6.939694405 1.126085043
1.389814377 1.526701927 -0.445901871
2.401275873 -1.144248605 0.763342559
-1.457142472 -3.841504574 0.453038841
1.965360045 0.124392383 -0.358014554
1.374986649 -0.322079599 -0.769187272
-0.869880557 0.139466628 -0.653737366
0.094134487 0.005625927 -0.189819977
-1.233244538 1.271376610 -0.923281133
-1.528478742 -0.573832810 1.535129905
-0.187735528 0.364928603 -0.286386907
0.295428753 -0.862842560 1.446888208
1.661587834 -0.034044072 -0.700214565
-3.977255821 0.323650956 0.521086156
0.346064568 -0.862950921 1.468279481
0.742410839 -0.300241023 -0.775422871
-0.291804492 -0.098191425 -0.434280962
-0.033731025 0.671714664 -0.674634755
-0.154952735 0.371370494 -0.284438789
-0.439107955 -1.810702324 -0.345012724
-0.027698260 -2.057336330 -0.243934050
0.163419306 -0.239836812 -0.296243221
0.228028893 2.134015083 -0.473612696
-0.305102825 0.571970105 -0.756102800
-1.064630747 -0.062022466 -0.241042137
2.085519552 -8.679395676 0.172663704
0.427298307 -0.079576634 -0.292456686
-0.438055247 -0.350118756 -0.775804281
0.933178484 -0.131809726 -0.410325795
1.030927896 0.261414677 -0.776567340
1.979772449 -0.908445418 -0.009805140
5.067622662 -2.350313902 0.554916501
1.348769069 -0.474471807 -0.192464173
-0.079461604 -0.658100009 -0.356185973
-0.993700087 -0.208217323 -0.302445322
0.252143294 -2.409105301 1.145861626
1.193644643 -1.212539315 -0.306647867
-0.207456306 -2.600991249 -0.045809541
-0.962980628 -0.320401371 -0.318084627
-0.425728977 -5.688947678 0.788624227
0.486123472 0.162586436 -0.832426906
-0.889264822 -0.462654263 -0.458131492
2.642782211 -0.628534496 0.988043249
4.952501297 3.186782598 -0.388478696
1.926434875 0.686398923 -0.735552013
2.147928476 1.032218456 -0.289573163
2.771836996 0.574566185 -0.282566756
3.224769354 -0.756787181 1.192420721
2.792969465 0.275033087 1.248626947
6.059333801 -3.937165737 0.922395647
-0.379584879 0.547424734 -0.280370831
0.092199095 -0.276724756 -0.298594862
-0.784054577 -5.005747795 0.130533203
5.749561310 -3.665638208 0.841159880
2.200708389 0.596322656 -0.232388273
2.216866970 -0.399940699 -0.040037755
2.074265480 -1.506586194 0.011286764
1.782286644 -0.302983612 -0.751711845
2.237653732 -0.421417028 -0.023178816
2.089561462 1.266986251 1.135021091
2.197476149 1.302046776 1.162322283
0.024918558 0.281542271 -0.278208166
1.841312408 0.583573520 -0.210089579
3.658221006 -1.908598900 1.000973940
-8.039899826 -1.405512333 -2.177878141
0.707532108 -1.981372118 -0.001403055
-1.299202561 -0.507131100 -0.045397546
-0.527379155 -0.694092691 -0.293542236
0.491886616 -0.747757792 1.447989821
3.829755306 -5.968712807 0.210991725
3.696689129 -1.914827228 1.003240228
-0.168722376 -6.175724030 0.483421534
0.520180106 -1.499861360 -0.720237255
2.296507597 1.066817641 1.266318560
2.603960276 -0.453511029 1.057568312
4.905999184 3.248420000 -0.638848066
1.898939252 -0.512793541 -0.200304881
0.003481239 -0.078268759 -0.488787234
-0.672036767 -0.301354617 -0.692527115
-0.047930509 0.693149805 -0.390926957
-0.073551282 0.321692437 -0.342905492
-4.705956459 -6.343385696 -24.909049988
0.036464673 0.384724945 -0.276310474
0.062262677 0.675119221 -0.232242808
0.272269011 0.617765307 0.019808279
-0.080038555 -0.052543830 -0.252877623
1.311946034 1.454310298 -0.412345767
2.493183851 -0.142483532 -0.148033470
0.547015846 -0.732976258 -0.243763506
0.958015621 -2.203595161 1.362446904
0.124735147 0.143287867 -0.197401926
-0.540179670 -0.749624193 -0.303012729
2.819809437 -2.122244120 -0.009072188
0.493246883 -0.716904223 1.425622821
0.152609751 -2.556434631 1.182245374
1.849040270 0.374175191 -0.635799587
0.049750447 -0.124138728 -0.248142749
1.755994439 -1.449635029 -0.009110949
0.053009171 -0.001444714 -0.281105250
3.083685637 -1.453771949 -0.118640870
-0.450064301 -0.331447840 -0.769174278
1.148123741 -0.334966183 -0.292774260
1.143280506 -0.324746341 -0.172756985
3.978635073 1.617491245 0.196335435
-1.294921041 -0.516832769 -0.048145313
2.015083313 0.250643015 -0.737689376
1.781448126 1.156786799 1.111848831
0.926180780 -1.979913473 0.003105811
-0.096789949 1.001328826 -0.469244540
0.221284956 -1.397534132 -0.738105118
1.994545460 0.386832088 -0.271926016
-0.438809007 -0.461527497 -0.732204556
5.419136047 -0.798281431 -0.137496069
2.517356157 0.831062138 -0.241108254
-1.144703031 -4.705510139 0.993514597
5.210372448 -2.654391766 0.726790547
20.198881149 -9.742164612 5.846374035
2.953995228 -0.198231176 1.092901111
2.913026571 -0.188589737 1.074170113
1.587137938 -1.319542885 -0.105950296
0.116346411 -0.229857832 -0.788951755
-0.083065301 -1.405252576 -0.596841514
-0.188059881 0.360810161 -0.279519498
-1.280698061 -1.808423400 1.520290852
2.094852686 -0.580971837 -0.158308402
0.210354954 -4.263530731 1.094827890
0.027844001 1.818737268 -0.568583369
4.881596565 4.264874458 -0.809045434
-1.023882866 0.980482757 -0.153007284
0.428990424 -0.084557138 -0.291344434
1.632985950 -0.279959679 -0.365000367
-1.591766238 -3.180256844 -0.277307183
1.317170978 -1.051531076 1.221417308
1.657931089 -0.037095718 -0.740274370
1.539105773 -0.828192294 -0.046532668
-0.696029663 -2.248251677 -0.030308902
-0.047238152 1.901598573 -0.124309719
4.323102474 0.434585750 1.223906159
1.291490793 1.916853428 -0.686507463
-0.977780163 -0.305534631 -0.497316450
-0.676004648 -5.673050880 0.971953571
1.675938129 -0.371868283 -0.349588871
-1.666115165 -0.794770539 -2.547995329
2.061538458 -0.323280185 -0.150279343
1.822163939 -7.238948345 0.913253009
-7.834711075 -5.269331932 1.126351476
0.323474020 -7.014674187 0.933319211
4.552525520 -7.016003609 0.737318695
6.208768368 -4.004930973 0.927512228
0.540754914 -0.792884588 1.455144286
0.104018226 -0.139034018 -0.255619317
-0.169179201 -0.060324714 -0.497949839
0.085553028 -0.251148671 -0.295742452
1.192088604 0.210350469 -0.859639764
0.982542157 -5.555793762 0.942250133
2.157452106 -2.727854490 1.247899532
3.900273561 0.764526308 0.516080678
0.250274926 -1.488293290 -0.808294713
5.295912266 -3.353053808 0.079587668
-0.112723775 0.204011872 -0.290009946
5.541559219 -3.489889860 0.040412251
2.185021877 -0.400220752 -0.243060246
1.473042846 -5.031961441 0.196432680
1.588788748 -0.862341821 -0.255023867
2.314507723 -0.442885637 -0.497465760
3.208746910 -7.947075844 0.813365102
5.778539181 -5.326313496 0.777267337
0.351056695 -1.100573182 0.893929064
1.651793838 -0.538739681 1.289061785
-3.880814552 0.065498620 1.220877171
1.356024384 1.759696960 -0.486527801
1.696103573 2.388465643 1.303725481
10.196793556 4.644991875 0.288936943
0.815112531 -1.118272185 -0.104345687
0.071435295 -1.219312906 0.020703709
2.655651808 -3.648530722 -0.007606310
6.722422123 2.439649820 1.673690915
4.630895138 1.389545560 0.763209283
-1.734141946 -3.829766750 0.732889831
-0.058661330 0.408649623 -0.276028097
0.380215049 -0.024862658 -0.747817576
0.047608770 -0.183328375 -0.336551100
-2.332693577 0.813557029 -0.612510622
-4.348499298 1.144093156 1.306903839
0.635881007 1.424643636 -0.451126575
1.723377466 1.156970382 1.122973800
1.790596247 2.167751789 1.299622416
-0.115310185 0.202855587 -0.286173195
2.398790836 0.769733667 1.135152340
1.814548969 -1.519479871 -0.126559988
3.463918209 2.520675182 0.284749627
4.009868622 0.938972414 0.642321229
0.034523457 0.389339328 -0.276623458
0.782962859 1.479311943 -0.295293570
1.502991676 -2.568350315 1.596351504
2.982886553 -0.225252330 1.122957945
-0.128498882 0.286104143 -0.303957641
-0.392611474 1.832529545 -0.174142838
4.903550148 3.904342175 -0.325246036
-0.060804859 0.226314351 -0.283817351
-0.115525238 0.201651067 -0.285895765
0.978383839 1.019595981 -0.753848851
-0.555561721 2.124473095 -0.262334198
2.369907618 0.025233230 -0.592195868
1.487422705 0.423866898 -0.161904246
-0.039104562 0.429389924 -0.278351247
4.063411236 2.161776066 1.235440254
3.733142614 0.987759411 0.567568421
0.524088144 1.929766655 -0.133070678
2.271143675 0.815160811 1.112489820
1.428674579 1.709945679 -0.593695402
1.467495322 1.375709891 1.349828005
-0.062574327 2.087189674 -0.146094248
1.899597645 0.936550617 -0.715508401
0.437926441 1.790933967 -0.813943803
0.095822312 -0.016315060 -0.207824305
0.100895740 -0.223725617 -0.406148016
0.960438311 -0.235009059 -0.018095633
4.823359489 1.388595223 1.040980458
-0.017392466 0.247855470 -0.277579486
0.040039517 0.068266027 -0.285446286
0.716398776 -0.312602043 -0.285763621
3.770430803 1.540983438 0.052787919
1.579398394 2.293433905 1.252777100
7.468865395 4.801632404 0.464278400
1.181621075 1.749612927 -0.712659955
8.086044312 3.729739666 0.274876684
-0.881362855 1.021542549 0.031839985
-0.030195095 1.602688551 -0.624069095
1.364209771 1.738311410 -0.589087129
-0.595615268 -0.668558896 -0.364493012
-0.761974514 -0.102830909 -0.379729480
0.378634989 2.291343212 0.216177344
0.429219395 0.066431329 -0.208745405
