ply
format ascii 1.0
element vertex 1282
property float x
property float y
property float z
end_header
-2.089206934 0.028047303 1.251612186
-0.063333608 0.115141250 0.338999957
0.000304786 -0.001547728 0.005795619
-0.356462300 -0.001206986 -0.042065214
-0.015492339 -0.003942026 -0.000152304
-0.019012716 -0.000734067 0.007922558
-0.035148580 0.015541645 -0.019741269
-0.015139152 0.002518272 -0.024587885
-0.027111428 -0.016190216 -0.005853082
0.515355825 5.603215218 6.807542801
1.073383570 -0.031219680 3.971472979
-1.977806449 5.545914173 0.601723969
-0.069180623 0.205964983 0.143909141
-0.019443424 0.093424655 0.077636056
-0.000230354 -0.001649256 0.007252349
0.025246482 -0.035243988 0.021070937
-0.018920617 0.040615216 -0.054967795
-0.001196084 -0.003347609 0.008910467
-0.010578918 -0.000107429 0.007058703
0.016609134 -0.001554784 -0.011258637
-0.006953116 0.003729723 0.000596871
-0.003789931 0.006785567 -0.029110890
0.001652336 -0.000802725 0.004933690
0.050198201 0.002111617 0.004803650
0.008597818 -0.019598888 0.024365293
0.025052506 -0.012034591 -0.005579433
-0.000980805 -0.002020205 0.007498405
0.013930290 0.012619392 -0.005688305
0.036627095 0.001886342 -0.016804202
-0.022606520 0.005892936 -0.008230156
-0.032540768 0.012018700 -0.015782584
-0.012049045 0.011151687 -0.013176307
-0.037189323 -0.009648536 -0.000163083
-1.341284275 -0.225955591 0.066149481
-0.059667435 -0.015114726 -0.009271884
-0.014121778 0.002034160 -0.023294656
-0.030175805 0.005367343 -0.030107412
0.005864462 -0.001436493 0.009552385
0.003959708 0.000977036 0.004659765
-0.016475428 -0.006690566 -0.019798143
0.013047062 -0.021195166 0.025565941
0.000110051 0.001453007 0.004058995
-0.011349429 -0.008158871 0.019507300
-0.001210835 -0.001881710 0.007480010
0.086025968 -0.022522099 0.020862380
0.057437863 0.030994061 -0.036413029
0.005280397 -0.007961597 -0.014648530
0.019792508 0.009278501 -0.001919106
-0.007895473 0.003611973 0.004770253
-0.001566397 -0.003375753 0.008819439
0.004092354 0.006041868 -0.005381974
-0.036403842 -0.008560281 0.004513986
-0.036615375 -0.009644751 -0.000295970
-0.001227216 -0.002076400 0.007524957
-0.026890287 -0.016537741 0.015946189
-0.049076203 -0.009756780 -0.015408632
-0.012475421 0.001395919 0.006575392
0.097205691 -0.025782648 0.023446633
-0.029528178 0.019161034 -0.022226127
-0.004902398 0.012996018 -0.009340346
0.001935292 0.009593127 -0.005191863
-0.027687758 0.014034505 -0.028268721
-0.034139328 0.003394996 -0.013691485
-0.023247816 -0.006935762 -0.014572098
0.007083335 0.029103121 -0.052786496
-0.008060208 0.113664746 -0.055869106
-0.012098506 0.000509914 0.005671480
-0.000005531 -0.001179855 0.005699095
0.020187225 0.017314436 0.000763191
-0.001737394 0.003246590 0.010459739
-0.003293477 -0.003829700 0.015120704
-0.009670678 -0.000833837 0.018950246
0.000169253 0.001927957 0.003134111
-0.011271810 -0.002207510 0.005679118
-0.014055015 0.001585992 -0.021622634
0.000658680 -0.002088284 0.007898172
-0.010095730 0.012547275 -0.010353573
-0.019808812 -0.008698919 0.007435208
-0.023156915 -0.007229942 -0.014441735
0.033404905 -0.006617291 -0.007613628
0.236270398 0.011980384 0.076708421
-0.022389164 -0.012673758 0.010577146
-0.011788634 -0.000301801 0.002686273
0.019772772 0.003617989 0.010797707
-0.000261315 0.000955873 0.003955183
0.014669693 0.008128682 -0.001739279
-0.015561924 0.014876640 -0.004401510
-0.036477435 -0.009901615 0.000285502
-0.003037221 -0.005250653 0.010687080
-0.036529262 -0.009606597 0.000713551
-0.031586062 0.002743962 -0.012268377
-0.017189760 -0.000508463 0.011517937
0.001254082 0.001574176 0.003861905
-0.034048587 -0.009971823 0.010712198
0.000604689 -0.002155567 0.007922994
0.005684536 0.011908670 -0.005498878
-0.018608823 -0.003105340 0.000982828
-0.001232226 -0.002061902 0.007519293
-0.028535914 0.014236380 -0.033382710
-0.020194849 -0.015272863 0.016462704
-0.040274125 -0.026918432 0.002782923
-0.012989059 -0.006421528 -0.016833689
-0.002384655 -0.004197878 0.009095014
-0.001547867 -0.003384883 0.008818350
-0.028761221 0.008308635 -0.018807800
-0.050204508 -0.009616955 -0.015764374
-0.062656686 -0.016422495 -0.011084947
-0.055131409 -0.077801712 0.056468431
0.002273429 -0.017909961 -0.001728683
0.002752464 -0.007682993 -0.015941765
-0.000761476 0.045822877 -0.065233313
0.087220013 0.207029626 -0.082490414
-0.029912042 0.019369908 -0.026486300
0.000954000 -0.016264357 0.021696219
-0.000328769 -0.003503330 0.009185029
0.056960046 0.013382707 -0.010872794
-0.007920616 0.004099630 0.004838741
0.012611933 0.007077764 0.010296448
0.000190626 -0.000875313 0.005439264
0.001768763 -0.000849297 0.005194907
-0.003104297 -0.001013213 0.013920709
0.027300578 -0.022562789 0.008685092
0.018917225 0.004669994 0.011049020
-0.010794221 0.010051437 -0.010367672
0.005109251 -0.000828394 0.013913542
0.003795420 0.001451260 0.004503440
-0.010095650 -0.066719063 0.066187248
-0.017555732 -0.011894385 -0.008162532
-0.055727534 -0.001158543 -0.024928804
-0.015075380 -0.009372425 0.017912146
-0.037383627 -0.022923686 0.010493575
-1.302227378 0.491597652 1.442958593
0.021473855 -0.003446438 0.020571582
-0.015654216 -0.010970755 -0.002856631
-0.034689590 0.005292716 -0.017871533
0.020262226 -0.006919320 0.020876136
0.008854184 0.012341972 -0.009474799
0.011456882 -0.013021114 0.024234524
-0.017839814 -0.012170786 -0.008721412
-0.014539039 -0.015452064 -0.009601343
-0.010000825 -0.000297661 0.005193883
0.022194372 0.005657332 0.010696343
-0.006328269 0.013882137 -0.002297120
-0.008917184 0.018135864 -0.038671557
0.041028425 -0.018670425 0.017640220
0.000047170 0.000139235 0.005403998
0.012270174 0.004760539 0.002205983
0.000037124 -0.000546712 0.006106928
-0.030538430 -0.020287128 0.009111461
0.001728810 0.009287416 -0.005155727
-0.037179276 -0.010923367 0.006417424
0.001551045 -0.000181954 0.005836030
-0.014053866 -0.007928107 0.019136215
-0.013702047 -0.013228009 0.016141318
0.013288859 -0.001210986 -0.017223295
0.017374411 0.008607923 0.007889771
-0.029928951 0.019558415 -0.027115941
-0.014789625 0.019883897 -0.025378568
-0.000062173 -0.003358315 0.009023913
0.009206465 0.001639356 0.002593029
-0.026880046 0.018523734 -0.025090225
0.003103863 -0.007339781 -0.016828526
0.003195797 -0.007313183 -0.017239312
-0.017363222 -0.016542867 -0.012247566
0.000963950 -0.002990087 0.008754556
-0.006452044 0.006854341 0.004580845
-0.019896071 -0.002765321 0.000954850
-0.144421443 -0.016009862 0.020216294
-0.015999574 -0.004163544 0.008653958
-0.013742032 -0.003884404 0.007633791
-0.029365815 -0.008452133 0.005578380
-0.021083958 -0.019140830 0.015953397
-0.012686858 -0.007087759 0.006553462
0.000572592 -0.002232166 0.007931266
0.007423905 0.007894116 0.005502046
0.008764973 0.007703556 0.005595710
0.003845565 0.001760918 0.004224130
0.018674094 0.003065046 0.004118049
0.000660622 -0.002052137 0.007886964
0.000355923 -0.003525307 0.009313404
0.042490050 0.014055872 -0.005574347
0.012884635 0.007602981 0.000445736
-0.016942358 0.044478409 -0.059333540
-0.000485632 0.000477749 0.004754148
-0.000414712 0.000459187 0.004784482
0.034378219 -0.004384357 0.014123094
-0.029548010 0.004727164 -0.028949404
-0.030027987 0.017133992 -0.034564510
-0.007098631 0.014986690 -0.012935729
-0.021547932 -0.003584620 -0.001594950
-0.010473983 0.013804663 -0.016024387
-0.001023170 0.010836490 -0.006904515
-0.012262722 0.000957943 0.002481601
-0.019623177 -0.004322815 -0.000541175
0.008656914 -0.001476979 0.016093284
0.011372304 -0.018994993 0.020421956
-0.000184476 0.001709929 0.001777569
-0.008638551 0.000080256 0.003832286
-0.012743114 -0.010331761 0.015780101
0.015868248 0.007710151 0.007459260
0.010483870 0.005236270 0.002803059
-0.010017983 0.012079541 -0.010268999
-0.009586437 0.003396198 0.006972286
-0.337087929 0.266415507 0.102744266
0.010890147 -0.009941257 0.019991877
-0.011485086 -0.013892867 0.017209923
0.001855360 -0.000731125 0.005272419
-0.007514481 0.005647754 0.005644306
-0.026298631 0.030317545 -0.057167646
-0.034708615 0.119860843 -0.134988442
0.048649587 0.038036183 -0.032758683
-0.006912936 0.003820105 0.007235043
-0.001662472 -0.003467222 0.008873086
0.060515184 0.047444966 -0.041963395
0.017101612 0.009299873 0.006619533
-0.010276957 0.010396316 -0.009886177
0.018221160 -0.005744461 0.021557450
0.033959582 -0.004654367 -0.009450149
-0.011906446 0.001844188 0.008649332
0.002872332 -0.007839232 -0.014726602
-0.012166540 0.003121716 0.008628212
-0.005577908 -0.080571719 0.069269359
0.020610727 -0.059959695 0.044602845
0.022594804 -0.014442862 0.002485848
0.001820108 -0.005884709 -0.000537333
0.006126836 -0.018473720 0.024749434
0.076244093 0.001609851 0.020069990
0.022614624 -0.001158641 0.009534379
-0.021656835 -0.012611052 0.009826106
0.040314142 -0.003688090 -0.013263240
0.012160148 -0.005751007 0.021369034
0.005566420 -0.015270587 0.020596568
0.029246166 -0.024369184 0.009615641
0.009539637 0.015072150 -0.005153915
0.057875473 0.037771758 -0.045930121
0.011326680 0.024597026 -0.026453368
-0.021774381 -0.047281861 0.020096473
-0.011945974 -0.000047660 0.002770721
0.004040509 -0.008946603 0.019155364
0.001933911 -0.003175359 -0.007431447
0.016066231 0.001264678 0.005194827
0.020637810 0.005995993 0.008938895
-0.029809736 0.019610457 -0.021750908
-0.042010233 -0.020087468 0.005160983
-0.023269422 0.007241744 -0.009396038
-0.017632537 -0.004082773 0.005102229
-0.047526982 -0.021760406 -0.001250227
-0.000503589 0.002066377 0.003315037
-0.008797368 0.003897536 -0.000037311
-0.009256860 0.017574366 -0.037520811
-0.027809076 0.010525564 -0.036197908
0.071092628 -0.006129191 -0.000602161
0.054259930 0.012694542 0.005763154
0.056735780 0.039840817 -0.042439625
0.010531506 0.008980140 -0.000756145
-0.010821196 0.011461952 -0.008957639
-0.009229200 -0.040137459 0.017458627
0.088258699 -0.011521640 0.008893508
0.078964502 -0.014255770 0.025394075
-0.024634715 -0.053547136 0.039147463
0.051387396 0.019213725 -0.037547465
-0.000645576 -0.002015807 0.007576713
-0.000040494 -0.018170847 0.025391012
0.028321540 -0.000313886 -0.011934423
0.034437869 -0.004613515 -0.009777110
0.024318170 -0.044440493 0.029264398
-0.008204737 -0.047516320 0.026651604
0.002198663 -0.002621963 0.008463288
0.000430282 0.000118065 0.005753398
0.030553328 -0.014861383 0.002795350
0.044213563 0.022669144 -0.037706044
0.000960019 -0.002981263 0.008831994
0.008107456 -0.023874380 0.025656682
0.046466932 -0.000174521 0.000543549
0.025751064 -0.001200412 0.011101296
0.060927082 0.039832078 -0.048119675
0.034160625 -0.006538213 -0.007912096
-0.024758006 0.018457951 -0.041039094
0.053684797 0.046208672 -0.058058590
-0.015627852 -0.008885304 0.011374535
-0.022648325 0.026819676 -0.049755268
-0.003434195 0.005702870 -0.026172463
0.018689249 -0.003502481 0.020438444
0.029309174 0.011274893 -0.005581042
0.000976384 -0.003010569 0.008730974
0.049481027 0.021463601 -0.008617742
0.035114877 0.063311107 -0.078491889
-0.010014771 0.012268437 -0.010285247
-0.000507490 0.001809420 0.003525560
0.024994824 0.008430871 -0.017665327
0.038518295 0.014945216 -0.028212054
0.000124248 0.034160551 -0.036773570
-0.016405802 0.001179278 0.003743320
-0.023166705 -0.008526014 0.011658701
0.018095983 -0.007418450 0.012864171
0.024579095 -0.036844663 0.022339154
0.011838816 0.000560886 0.015052444
0.031274647 -0.013933431 -0.000318353
0.154861584 0.042983998 0.006104347
0.017411703 0.013244155 -0.032453395
0.020973425 0.019901328 -0.017123353
0.016842768 0.000652202 0.005569085
-0.008634135 0.004360525 0.007381790
-0.006425555 0.012023441 -0.008597560
0.022505453 0.007275906 -0.002438064
0.011147266 0.005946135 0.001229312
0.035651371 0.094066449 -0.067931287
0.013444737 0.011400956 -0.009360523
0.064379029 -0.027373586 0.020568194
-0.006897366 0.003829056 0.000556347
0.068032183 0.052174848 -0.064341374
-0.000245127 0.039939720 -0.048126053
0.055736113 0.029966813 -0.026946496
0.024248872 0.001757764 0.007248905
0.020842025 0.006192687 0.008881790
0.022077179 0.005229068 0.010850123
-0.000019261 -0.000017981 0.005393161
0.001226798 0.001527361 0.004008949
0.002883329 -0.007813578 -0.015866313
-0.026835985 0.070632905 -0.184451684
-0.005042902 0.032618728 -0.052710682
0.011537737 0.009640468 -0.003605429
0.022495115 0.002383075 0.005382951
-0.001568825 -0.003321232 0.008821776
-0.012619040 0.036787890 -0.044230044
-0.011567136 -0.008285940 0.019408010
0.001205603 -0.000762859 0.006508572
0.055924002 0.187004730 0.069037139
-0.015433364 -0.003926728 0.000384138
0.000130060 0.001236948 0.004185329
0.018597152 -0.003406622 0.020362107
0.001367874 -0.005735412 0.011807818
-0.009242262 -0.005818315 0.003863057
-0.020695847 0.029994562 -0.049444646
-0.000100019 -0.001429051 0.004776945
-0.004838297 0.033753548 -0.054488912
-0.027354831 0.016671648 -0.030868249
0.036106549 0.013968324 -0.026420390
0.022844810 0.008750940 -0.001425016
-0.000312403 0.000544122 0.004119132
-0.006552607 0.004244521 0.004933611
0.001083052 -0.003003504 0.008894429
0.056492694 0.001515129 -0.000616263
0.102448151 0.022567831 0.011677956
0.024129076 0.003178810 0.005907982
-0.011634582 -0.003875306 0.006387011
-0.008184667 0.007666662 0.006380158
-0.001388307 0.046369683 -0.046663016
0.011431769 0.009325827 -0.003813290
-0.016741296 -0.004985938 0.000849639
-0.030939441 0.006306937 -0.020855144
-0.004516163 0.034192573 -0.055078626
0.012834426 0.000708165 0.015260579
-0.004698358 0.013742323 -0.009925509
0.024723282 0.010909925 -0.001943077
0.001167794 0.036364466 -0.042947069
0.014516827 0.010842951 -0.004150933
0.009042615 0.002056592 0.002085932
0.020670792 0.005856681 0.009016457
0.016129805 0.008600033 0.006662097
0.005568678 0.007334571 0.006237023
-0.010711868 0.003009093 0.008250437
0.028114034 0.010732143 0.000827225
-0.003016308 0.013286612 -0.002406908
0.027722785 0.014205256 0.003894593
0.010750860 0.005378050 0.009900435
0.012779746 0.006042040 0.006727292
-0.034552682 0.007421294 -0.023025984
-0.053547394 0.010471396 -0.039188050
-0.051236872 0.009245411 -0.037328035
-0.016754219 -0.006400987 -0.020671349
-0.007341613 0.022240624 -0.025051661
0.022771854 0.004994849 0.012457571
0.059982270 -0.023074612 0.012879123
0.019283079 0.014097490 0.002178750
0.161543623 0.281396568 -0.086334519
0.012888800 0.010473136 0.004828901
0.027618792 0.010579647 0.000674009
0.027125478 0.012619044 0.002177033
-0.006840026 0.004731124 0.006890162
0.015569045 0.014729787 -0.008007350
-0.012629438 0.014777821 -0.003617899
0.048026673 0.036687106 -0.033668306
0.013381882 0.061792921 -0.079761282
0.166018724 0.006376058 0.017300228
0.052487683 -0.006425848 0.001517439
0.005988777 -0.027510857 0.009440716
0.028363757 -0.023807159 0.009558191
0.010962011 0.020279877 -0.042402621
0.020264072 0.005350889 0.011826583
-0.023684135 -0.007393002 -0.014027394
-0.013347852 0.002092410 0.008706490
-0.007534144 0.000082456 0.007703200
0.031812903 -0.011383516 -0.001336529
0.000310861 -0.001334891 0.005584707
0.006914463 0.009864686 0.004336150
-0.011422690 -0.000960250 0.005184026
0.003901213 -0.000847982 0.009537661
-0.010575923 0.005446462 -0.001834655
0.157945752 0.000825680 0.044065725
0.076531388 0.000599346 0.027807530
0.046982393 -0.021173652 0.019852543
0.028683007 0.006605176 0.003872348
-0.027156463 0.021931665 -0.035353698
0.024007497 -0.044769932 0.029852470
-0.005130825 -0.012002472 0.015994892
-0.005609826 -0.066616639 0.057544790
0.025387704 -0.021609414 0.026095875
0.010214714 -0.007983528 0.012694439
0.007684384 -0.018521549 -0.000897743
0.025389375 0.011904090 -0.021067781
0.013208800 -0.078314871 0.069145814
0.010868143 -0.014056560 0.020755852
0.052313488 -0.002624828 -0.008547981
0.022934657 -0.011552599 0.000761146
-0.006875100 -0.013419047 0.013527017
0.056137227 -0.005855782 0.000416910
0.110871769 -0.008478750 0.023150362
0.076381542 -0.011098188 0.009675609
0.021605052 -0.043948058 0.030106027
0.047546051 -0.019407343 0.017076980
0.030737637 -0.015929993 0.002583676
0.043077800 0.007591374 0.007364939
0.012197845 -0.010904689 0.022222159
0.021512026 0.018611265 -0.028174402
0.059790224 0.051024273 -0.064017616
0.022131206 0.001114017 0.007315006
-0.001249821 -0.002061979 0.007524961
-0.003108281 -0.005358356 0.010673663
0.035713188 0.002538284 -0.016855111
-0.018682230 -0.010828157 0.012726118
-0.011172282 -0.007971502 0.019538095
0.033780549 -0.001216508 -0.011060422
0.031204490 -0.015163805 0.002644368
0.011039805 -0.014316732 0.021124262
0.050019730 -0.002129935 0.001055291
0.032629941 -0.015557239 0.002341744
0.039893512 0.029923828 -0.037639141
0.008775126 -0.007789276 0.019174749
0.013014482 0.009225899 -0.003197981
-0.036193684 -0.074992642 0.053700496
-0.000476136 0.000361463 0.004632552
0.012188975 -0.068050526 0.054429609
0.037618481 0.005059720 -0.019634997
0.131375656 -0.006702357 0.027767496
0.058281884 -0.025014069 0.018835185
0.021574605 -0.003465588 0.020537309
0.045800846 0.009492579 0.006259712
0.012171718 -0.005715144 0.021340437
0.014323478 0.010963469 -0.004137508
0.006136736 -0.028073581 0.009682298
0.047760099 -0.021915399 0.000546065
0.003793091 0.001567123 0.004461948
-0.027424948 -0.016531125 -0.005949197
-0.001171713 -0.000915480 0.006410281
0.032173578 0.044580881 -0.042106509
0.013612127 0.013352313 -0.009620082
0.027104089 -0.014430740 0.002721932
0.019400572 -0.011968447 0.001416669
-0.001197380 -0.003409571 0.009013875
0.005002373 -0.016261257 0.021953428
0.005424723 0.012368605 -0.026368380
0.017736601 0.010179768 -0.000661002
0.010638995 0.012658338 -0.011573413
0.093562573 -0.007123864 0.009966083
0.026064167 -0.022302222 0.008947804
-0.025301952 0.019363951 -0.031509686
0.151046291 -0.083859973 0.017348923
0.000508119 -0.002151656 0.007880804
0.011945789 -0.007521254 0.018148722
0.011673712 -0.007638491 0.017948551
0.000211838 0.001539494 0.003917471
0.043759860 0.087162018 -0.101439089
-0.037626389 0.061959866 -0.044093873
-0.000629627 -0.003543131 0.009052167
-0.016472770 -0.001739500 0.010793605
-0.003319104 -0.011840134 0.016416110
-0.012108456 0.010421555 -0.010807872
0.000087582 0.047745544 -0.068006501
-0.004808385 0.011320096 -0.007868856
-0.024233039 0.013763970 -0.016603487
0.029390818 0.026451962 -0.022751931
0.000237289 0.015545663 -0.007067140
-0.000927097 0.001452849 0.004738479
0.020369321 -0.004302892 -0.013355236
0.016762862 0.008131373 0.007873379
0.003163808 0.010029219 -0.010126426
0.023093253 0.002920089 0.014545269
0.033737611 -0.001220466 -0.010708296
0.028585929 0.005756132 0.004509620
0.066869251 -0.007755629 0.028702272
0.001791484 0.009816476 -0.005683173
-0.011090438 -0.000997749 0.000665081
0.035648584 0.002766606 -0.016889380
0.065652125 0.043491635 -0.053258743
0.011591667 -0.010667376 0.021434279
0.016394094 -0.018927760 0.021935839
0.036139995 -0.081366494 0.082613938
-0.009633556 -0.088866383 0.074642651
0.057836179 0.020751951 -0.014491425
0.021930879 0.010424706 0.006626285
0.065719977 -0.001088443 0.012635044
0.020380735 -0.005425891 0.020880355
-0.000453945 -0.012492883 0.004388500
0.055152565 -0.016349923 0.006888502
0.008137129 0.040900122 -0.051220320
-0.107120916 -0.108007111 0.059955023
0.034216892 -0.002517176 -0.012588975
0.056218158 0.030060576 -0.026911974
-0.033518407 0.003063233 -0.012904201
-0.009822450 0.011839672 -0.011151878
-0.001817244 0.010372045 -0.004091008
0.050465215 -0.020453077 0.011358872
0.046799000 -0.006068628 0.026659666
0.053622942 -0.011329102 0.002010548
0.112703741 0.003954520 0.037896276
0.166664571 -0.022052705 0.050124999
0.030418640 -0.013797209 -0.000011646
0.000075829 0.000859621 0.004033018
0.026832774 0.002218055 0.014455274
0.020587804 0.006060250 0.008744633
0.064051673 0.045445435 -0.048796017
0.000652589 0.001336651 0.004011221
0.011639630 -0.013350972 0.041209858
-0.010729522 0.011654984 -0.011705356
0.019262761 0.008890789 -0.002062610
0.160296664 -0.021332853 0.048857182
0.024601940 -0.014748598 0.002220332
0.012650824 -0.014975416 0.020533996
-0.000230222 -0.001709081 0.007189685
-0.001684107 -0.003449135 0.008885344
0.042493448 -0.019610157 0.018323466
0.001919275 -0.014121419 0.020714641
0.010068127 -0.006642248 0.020497903
-0.000510690 -0.000523758 0.005856398
-0.003071477 -0.012353536 0.016558686
0.025249684 -0.004786515 -0.012371521
0.044142574 -0.005589197 0.006362628
-0.016161483 -0.012405405 0.015239661
-0.017249230 -0.023128463 0.021297587
0.052473433 0.009070442 -0.000538246
0.004755769 -0.012235188 0.020827344
0.031373851 -0.010449820 -0.002200983
0.008107678 0.004901621 0.001724044
0.062369309 0.016094245 -0.002752906
0.008504896 0.008498374 -0.001081961
0.135952726 -0.022684591 0.039367650
0.011626478 0.009684949 -0.003709007
0.060132343 0.021898802 -0.016296478
0.026278166 0.003793903 0.005246116
-0.001344199 -0.003471630 0.008980989
0.007746361 0.006727234 0.005466826
0.004346621 0.003803749 0.010501208
-0.023877893 -0.014648656 0.003988396
-0.023024067 -0.025583148 -0.003362583
0.071652927 0.000863434 0.019374508
0.048970435 0.000104734 0.000574823
0.010221502 -0.006094604 0.019733228
-0.011676561 -0.055751674 0.031415205
0.004003161 -0.014144701 0.020818595
-0.004402123 -0.014422416 0.023018487
-0.022761254 -0.026686117 -0.002681335
0.002859852 0.004662151 0.008405331
-0.000257210 -0.018406607 0.001136311
0.000302964 -0.000501210 0.004807774
0.001544930 -0.000831720 0.006061956
0.002764293 -0.000281104 0.001112745
0.001817210 0.002389346 0.004119897
-0.029712388 0.016749907 -0.034094289
-0.028791193 0.004834534 -0.026638241
-0.002865393 0.015943425 -0.003755070
0.022879591 -0.006458406 0.021717759
-0.000307402 0.048674360 -0.069225095
-0.024347015 0.010650285 -0.026247263
-0.008458194 -0.011395329 0.013282886
-0.028431570 -0.005247586 0.014286038
-0.020922737 -0.035706252 0.013112128
0.001380689 -0.001437264 0.005699831
-0.152681381 -0.227962136 0.193682089
-0.006763880 -0.019030940 0.016967695
-0.006487137 0.002519523 0.001424355
-0.027804913 -0.081414655 0.064747453
-0.038252283 -0.024294138 -0.000381035
-0.017824491 -0.016743694 -0.012581383
0.000126420 -0.024930749 0.001850411
0.003905699 -0.002029962 0.001625534
0.011426232 0.001778606 -0.001992486
0.001164223 -0.001626850 0.005434136
0.004336970 -0.018716227 0.020045079
-0.008550435 -0.011721184 0.014184398
0.014626227 -0.082610004 0.100494020
0.002259297 -0.075118989 0.079203345
-0.002689319 -0.025715524 0.001643798
-0.010056498 -0.080764025 0.084179312
-0.001517986 -0.003291110 0.008768138
-0.000855047 0.006363559 0.007828447
0.000611073 0.001531913 0.003837626
-0.003434423 -0.042476743 0.002151580
0.001993179 -0.025032002 0.016222758
-0.032940932 0.004106603 -0.013345275
-0.054510787 -0.016682314 0.008666983
0.003255481 0.012211010 -0.008125748
0.001716576 0.000250358 -0.013500477
0.004506092 0.009108209 -0.002116478
-0.050494589 0.005398531 -0.029973477
-0.010155998 0.008693303 -0.009007582
-0.041385163 -0.028836768 0.010915939
-0.011230219 0.000847273 0.002562997
-0.064507775 0.112505332 -0.123799749
0.001824842 -0.000068764 0.004933733
-0.025541104 0.019914038 -0.013853913
-0.000015789 -0.002915295 -0.008364325
0.050471440 -0.018940976 0.026555348
0.006993320 -0.019725477 -0.000707130
-0.001165944 -0.000913286 0.006379458
0.029110961 0.008795394 0.008198123
0.028892173 -0.027413838 0.012359049
0.041664448 -0.006609058 0.027409529
0.047149748 -0.020451643 0.015537379
-0.010739489 -0.014821236 0.014975511
-0.030820994 0.008383071 -0.022646099
-0.005450933 -0.023965526 0.022528941
-0.012862427 -0.019342666 0.016870849
0.050004151 -0.016621001 0.015086561
-0.019752892 -0.006909352 0.017912323
-0.008668560 0.018724103 -0.025372144
0.032288365 0.004113534 0.006651829
0.056393635 0.053913798 -0.032922260
-0.026126608 -0.009553742 0.012545798
-0.022722127 0.035828657 -0.058060061
-0.009470130 0.003849055 0.001078962
-0.006419392 0.011371386 -0.008168278
0.019963389 0.002131184 0.005115092
-0.007789681 0.000597856 0.003317360
-0.040939383 -0.034131344 0.008714224
0.006138609 -0.045144454 0.017501742
0.000289835 -0.000611116 0.004795011
0.020466216 -0.043428674 0.030489229
0.000014010 0.001016380 0.003426785
-0.011998465 -0.000809846 0.004380051
0.004847383 0.001580870 0.005521487
-0.000545703 0.002053332 0.002885141
0.000407152 0.001469801 0.003607457
0.053838752 -0.016695095 0.016100213
0.002027168 -0.013509467 0.020136740
-0.001600183 -0.003394020 0.008892494
-0.034130000 0.003331156 -0.013467766
-0.040864810 -0.026619252 0.010024283
0.014415586 -0.011676816 0.017825540
0.155643344 -0.073588237 0.043669060
-0.025063919 -0.016123869 0.013314343
-0.007054863 0.002605344 0.009949011
0.000167830 -0.029000726 0.018190388
-0.010263558 0.004645987 0.008020857
-0.007403573 -0.000396207 0.013894599
-0.006482290 -0.006215286 0.019864166
0.000706823 -0.002543345 0.007606470
0.008343207 -0.020392554 -0.000766230
0.000974762 -0.002550306 0.001040912
0.016313158 -0.019253815 0.022308039
-0.008055904 0.002666577 0.008678509
0.011888086 0.009313899 0.000853837
-0.013110955 -0.012882186 0.016579363
-0.008631033 -0.011492910 0.013951438
0.022152772 -0.018028405 0.023970755
0.022968385 -0.024427189 0.047811672
0.003780846 0.003437305 0.002402289
-0.022556182 -0.039178777 0.013793942
-0.000618601 -0.011148919 0.010743604
0.027585657 -0.104376085 0.071835004
0.001769851 -0.033507347 0.021723580
0.011368862 -0.013830388 0.020173594
-0.011012284 -0.000020838 0.002957811
0.000030431 0.000960301 0.003830148
0.000111291 0.000881162 0.003987495
-0.010351060 0.006744705 -0.000594664
-0.001167627 -0.000922876 0.006364588
0.000668221 -0.004849086 0.012114671
0.000148098 0.000735938 0.004157419
0.020233953 -0.007022581 0.016806057
-0.003632734 -0.009775554 0.019230090
0.000171372 -0.037875172 0.039164081
0.000626217 0.001707302 0.004109276
0.010568256 0.005493996 0.009660061
-0.000010763 0.001380158 0.003999784
0.009845993 -0.011010672 0.021397870
-0.019020585 -0.008109842 0.018489687
-0.006400872 0.002409528 0.009080940
0.000079493 0.001261061 0.004152937
0.012224594 -0.010237719 0.015867602
0.000924172 -0.002965600 0.008737409
0.037855331 -0.009376694 0.014089106
-0.058107924 -0.011607017 -0.009815735
-0.014229505 -0.012623625 0.012777435
-0.007206120 -0.008933900 0.017310049
-0.000922278 0.010573358 -0.006717689
-0.005401550 -0.018910525 -0.004260836
-0.004818035 -0.018297369 -0.003504458
0.023467094 -0.017151726 0.026156554
0.046209112 -0.011626073 0.020434754
-0.004860733 -0.011625940 0.012315819
-0.110795029 -0.073723517 0.013771297
-0.020699516 -0.003526566 -0.001315632
0.010601190 -0.006211247 0.019732807
0.001126367 0.001635406 0.003918717
-0.031610567 -0.006165782 0.013167119
-0.046510119 -0.002860517 -0.015171452
-0.003092422 -0.012595296 0.016832080
-0.005574657 -0.008495193 0.011333933
0.074901767 -0.011096315 0.033191644
0.055751111 -0.008451625 0.024938297
-0.011028828 0.007812909 -0.003739168
-0.007897389 0.004136100 0.004720318
-0.012406766 -0.009218396 0.020920487
-0.013391791 0.009284664 -0.011179668
0.000967189 -0.003091429 0.008809588
0.015348337 -0.028070070 0.011521021
0.024069605 -0.004030895 0.004810163
-0.000477081 -0.000501176 0.005957547
-0.001311879 -0.001998517 0.007439529
0.019880766 0.010205998 -0.002709038
-0.003724126 -0.003092888 0.009933211
0.026709836 0.003879881 0.005197622
-0.017317485 0.012130090 -0.014213944
-0.010105212 -0.013520554 0.017414683
-0.014780443 -0.003747276 0.008494354
-0.072767138 -0.050851874 0.022353323
0.026291212 0.010344893 0.004949567
0.034648292 0.004658114 -0.018330492
0.000553887 0.001655476 0.004106965
-0.000553718 0.002050614 0.002841930
0.004095223 0.004398401 0.005421801
0.004675230 -0.027690653 0.030130763
-0.022321658 -0.024867408 0.004540357
0.000540687 -0.002203386 0.007726720
-0.007655725 0.004697719 0.006529998
0.020148002 -0.015785776 0.030166499
0.010762236 -0.056217782 0.037643112
-0.035998922 -0.073192105 0.052671328
-0.018677460 0.032843318 -0.036418263
0.004764380 -0.044017114 0.028952202
-0.030640528 0.001068630 -0.025990300
0.003383160 -0.000816288 0.005840407
-0.006623384 0.002566036 0.008493069
0.007433825 -0.001417948 0.007655441
0.099261388 0.002283669 0.014246517
0.010846493 -0.010047692 0.020224210
0.004669684 -0.000514427 0.011418013
0.002652356 -0.084409945 0.068230227
0.009318603 -0.017520063 0.022629589
-0.063777298 -0.028719384 0.000481760
-0.001517120 -0.003430573 0.008853087
-0.002900357 -0.036815319 0.022827525
0.000864509 -0.002800581 0.008254979
0.129669338 -0.001124132 0.059421428
0.001448073 -0.000152293 0.005697691
-0.002671208 -0.004722953 0.009787789
-0.019317938 -0.014865706 0.016228946
-0.041258935 -0.047159139 0.026100080
0.006727590 -0.006260342 0.012531652
-0.012198132 -0.001647731 0.005439481
-0.003292364 0.013040906 -0.001290775
-0.006247658 0.013949865 -0.002321959
0.013067339 0.006401298 -0.000601444
0.006351430 0.046458367 -0.059326556
-0.005652334 0.009536996 -0.000205704
-0.009457104 0.003021833 -0.000094018
-0.004854074 -0.018369323 -0.003613526
-0.016597910 -0.001420994 0.008015910
-0.004209859 -0.011083044 0.018128686
-0.007865050 -0.024169007 0.025916446
0.013089837 -0.011903735 0.017641893
0.010438960 -0.007802403 0.020223685
0.001063106 -0.014270985 0.023266129
0.035306465 0.012794729 -0.025683325
-0.004859524 -0.013022869 0.017239066
-0.012384147 -0.013882118 0.014978101
0.013118121 -0.020352233 0.025765272
0.097754218 -0.007113643 0.019270441
0.010787733 0.010591496 -0.007647920
0.082094982 -0.000843027 0.032041978
-0.007176814 -0.012227428 0.013895262
0.059551805 0.022690918 -0.012350487
-0.011077722 -0.000673697 0.003098988
0.000613193 0.001249640 0.004189477
0.000285976 -0.001270268 0.005540550
0.020087950 -0.008417418 0.021579854
0.027174853 -0.034173440 0.019182552
0.013809582 -0.011580886 0.018018641
0.023168014 -0.049412467 0.034583125
0.019756617 -0.031921878 0.015660698
0.001307207 -0.051607862 0.054032728
0.052633598 -0.031330220 0.017419094
0.015917476 -0.050026085 0.036134902
0.003200581 -0.001239009 0.006089346
-0.022325886 -0.036421545 0.013343517
0.002417282 0.005835688 0.009970863
0.005637116 -0.015770271 0.019591346
0.025923640 -0.004320910 0.004879644
0.011685193 0.007755213 0.006698633
-0.001526195 -0.003323097 0.008881034
0.071522124 -0.028438697 0.025473971
-0.010461719 -0.008820289 0.021553639
-0.006842833 -0.010979489 0.015505661
-0.015827302 -0.002614078 0.001184332
-0.060191851 0.082558192 -0.097216688
-0.036298189 -0.010139911 0.000353656
-0.010710767 -0.012011027 0.014641166
-0.010925168 -0.010854620 0.017035533
0.017107952 -0.042156812 0.043259032
0.019640839 0.011768038 -0.004486390
-0.000388868 -0.003522293 0.009121712
0.081691422 -0.010189329 0.033268757
0.002686319 0.014503974 -0.009636186
0.011368751 0.014015766 -0.006866746
0.013561757 0.005722505 -0.000567730
-0.010902653 -0.000130117 0.007766044
0.149789795 -0.048683528 0.051561352
-0.007559702 -0.000752132 0.002395690
-0.007405946 -0.000929836 0.002498421
0.001563087 -0.015790651 0.021262886
-0.001331024 -0.002022632 0.007424752
0.000584410 0.001543358 0.003823655
0.002496707 0.006089143 0.001341298
0.023670426 -0.001014809 0.009626917
0.061945837 0.040754471 -0.050402954
-0.000491261 0.002511056 0.004513511
0.005043200 -0.008407663 -0.014521164
0.072420247 0.029856957 -0.055640817
0.026011076 -0.028796285 0.013987277
0.046311062 0.037692539 -0.052547276
0.038670212 -0.005162887 0.003782972
0.000954796 0.015666647 -0.001711900
0.011434621 -0.010322294 0.019240329
0.000656402 -0.000655710 0.004812425
0.019840492 -0.006722577 0.023791969
0.000319759 -0.000026820 0.005438380
0.016852418 0.000614244 -0.007790360
0.000893159 -0.002984677 0.008797012
0.014920388 -0.020604005 0.026081005
0.004359495 -0.011845263 0.020530200
0.000999638 -0.002940219 0.008743853
-0.003552738 0.003089974 -0.004107120
-0.003045039 -0.007533251 0.006272085
-0.000852104 -0.003441400 0.008984273
-0.000781924 0.006009049 0.007448304
0.000955208 0.000749505 0.004293635
0.011118263 0.012841499 0.002019974
0.019814862 0.003704521 0.003752272
0.000127914 -0.001424461 0.005265328
0.000298528 -0.010408475 0.020267611
-0.106540091 0.115952730 -0.004568405
0.058568738 0.057536036 -0.076747335
0.030306442 0.065772682 -0.065811887
0.017187500 0.018616544 -0.005683563
0.042719822 0.014581094 -0.006598125
0.136555135 0.077651940 -0.051832490
0.013920721 -0.020811206 0.012358217
0.012874586 -0.006030842 -0.000232028
-0.003934358 -0.014404064 0.013990556
0.006536213 0.006504636 0.008100678
-0.014884379 -0.012226651 0.017890804
-0.000657638 -0.002841788 0.007608448
0.037710812 0.020948214 -0.033836752
0.255652905 -0.038436588 0.068505190
0.071434967 -0.022881415 -0.006988315
-0.021935955 0.042041350 -0.136859208
0.040027343 0.063249424 -0.075683683
0.043054152 0.087201498 -0.089869514
-0.030244561 -0.011630326 -0.012464999
0.008749035 0.011946050 -0.005647048
0.047795154 0.006439037 0.004549995
-0.005404854 -0.011640504 0.014096130
0.036906119 0.046134800 -0.041780185
-0.003641489 -0.005253886 0.008861090
-0.003537869 0.026422478 -0.029296799
-0.007102855 0.015625086 -0.013149094
0.028407952 0.004715460 0.005098344
0.015024005 0.010745171 -0.004175408
-0.004915463 0.012683188 -0.009071299
0.021648539 0.022720477 -0.024018528
0.026779998 0.026785087 -0.031219492
0.035794735 0.004615774 -0.018534722
0.017865885 -0.007599665 -0.000581959
0.045973744 0.032031983 -0.051137146
-0.000852576 0.013421865 -0.009171881
-0.043197431 -0.029979775 0.011298489
-0.035927877 -0.017331084 -0.005521241
-0.010569100 0.007940155 -0.003027076
0.006143586 0.010796968 0.005317175
0.004259349 0.003399738 0.010473057
0.020352127 0.016665205 -0.039866965
-0.000457532 0.001714982 0.003612899
-0.000307494 0.001069820 0.003859899
-0.025679598 -0.011298844 -0.009262694
0.000620912 -0.002402895 0.008019355
0.000078736 -0.001500730 0.005581039
-0.009264453 -0.015465591 0.021980423
-0.015573699 -0.007384997 0.019018231
-0.006433978 -0.012702120 0.015481962
-0.005343051 0.001426258 0.002252510
0.018312123 -0.004553801 -0.013342252
-0.013165751 0.009620276 -0.041428771
0.013763681 0.010194319 -0.003687330
-0.009440388 0.000592520 0.008903550
-0.010894849 0.009925800 -0.009639885
0.020250689 0.013240555 0.002828072
-0.031806540 0.001364813 -0.026905995
-0.001341698 -0.003446382 0.008974057
0.031855743 0.059267066 -0.072147317
-0.019613724 0.036698725 -0.051972352
-0.010346398 0.020623220 -0.043209288
-0.017918790 0.019791091 -0.010440915
-0.010321173 -0.002677816 0.005867366
0.000909403 -0.003000757 0.008754625
-0.000798987 -0.003436677 0.009009833
-0.020000581 -0.002667255 0.000577140
-0.002948846 -0.005288581 0.010608915
-0.011629059 0.000422330 0.002958876
-0.026227638 -0.019926278 0.011037985
-0.009782625 -0.000843544 0.004635126
-0.027549732 0.007720333 -0.030010384
-0.017028119 -0.002826592 -0.001272916
-0.020451566 0.018470565 -0.041811671
-0.018043689 -0.002424283 0.006420208
-0.011005788 0.016776210 -0.005388369
-0.007046478 0.014089526 -0.012073092
-0.008068342 0.019249523 -0.017136630
-0.037755828 -0.018102145 -0.006415030
-0.031453509 0.001056208 -0.026192699
-0.011450610 0.000096637 0.002591241
-0.016400879 0.001879424 0.009094636
-0.045814112 0.014475920 -0.033711936
0.003639276 0.000969806 0.004682652
-0.001191553 -0.003455707 0.008931307
-0.013126394 0.008990516 -0.011550698
-0.008851342 -0.055530541 0.031609070
0.014682980 -0.013777158 0.006018684
0.001724139 -0.002646969 0.008098031
0.001179787 -0.000723952 0.006563341
0.000110392 -0.000537720 0.006067215
-0.020061670 -0.022250103 -0.003686072
-0.007018210 0.043281808 -0.049020410
-0.022974202 0.023985086 -0.048033800
-0.004439591 0.006167649 -0.027424956
-0.028626645 0.006789708 -0.021251781
-0.010704185 -0.000205766 0.003419875
0.023970829 0.003138505 0.002052456
-0.007549979 0.003840379 0.004827569
-0.008111103 0.002114560 0.002383481
0.035880327 0.004565344 -0.018653695
-0.016151911 0.014075164 -0.017784940
-0.031274926 0.002576979 -0.011972536
0.007582494 0.004403235 0.001504499
0.007690528 0.004732637 0.001299704
-0.007304741 0.012926871 -0.000600778
-0.027912520 -0.001216933 0.007739595
-0.021411469 -0.019370375 0.017340627
-0.016604664 -0.006888039 -0.020304462
0.000610647 -0.002179375 0.007894265
-0.000071428 0.001164744 0.004321691
-0.024771843 0.010454929 -0.012740655
-0.032492939 -0.024657588 0.001756659
0.001501202 -0.001430320 0.005597293
0.009410374 -0.011868657 0.025270546
-0.000005298 0.000058839 0.005303758
-0.017528040 -0.011915375 -0.008573643
-0.017878888 0.006989364 0.001301492
0.001955066 -0.003466003 0.010331050
-0.004268477 -0.011430248 0.014368220
0.001463284 -0.013424854 0.013790193
0.000023428 0.003465955 0.002661026
0.016568184 0.029070644 -0.021706238
-0.018140292 0.002457276 0.007774550
0.005427416 -0.012577649 0.021699667
-0.005407916 0.018508438 -0.014193500
0.049619883 0.006445939 0.021612333
-0.011681881 -0.011299583 0.017588420
-0.017779997 0.030107964 0.045868404
-0.002164356 -0.023989378 0.000617543
-0.004040223 -0.003863523 -0.005355797
-0.001351438 -0.002096187 0.007444628
-0.003003972 0.009616336 -0.002283128
-0.011751994 0.006530245 -0.006413414
0.001335877 -0.001138535 0.006000693
-0.037190095 -0.025283983 0.002582825
0.001564633 -0.000166918 0.005765914
-0.038192332 -0.025955930 0.002225274
0.018304905 0.017201576 -0.034139521
-0.012905477 0.010177298 -0.046704233
-0.031721573 0.021074455 -0.028990634
0.000939413 -0.003792117 0.008978893
-0.028314922 0.018212998 -0.021569440
-0.065355517 -0.043998241 0.015070684
-0.044754554 -0.045052942 0.028532913
-0.000586199 -0.002592582 0.008171219
0.045913730 0.001773872 0.004321157
0.051550530 -0.003941395 -0.000776223
-0.011897997 -0.003489708 0.006252803
-0.010415452 -0.002909893 0.005153102
0.004917313 -0.007278179 0.008474579
-0.008647981 -0.014976137 0.014876431
-0.035458248 -0.034031209 0.026433934
-0.015484599 -0.011065157 0.014460322
-0.000044017 0.001290571 0.004030519
-0.003941488 -0.012369772 0.018409470
0.000224963 -0.013572371 0.008664289
-0.010403934 -0.008129395 0.018520089
-0.008903414 0.000474541 0.003625729
0.000069652 -0.003046480 0.009187507
-0.004286645 0.028559668 -0.033307545
-0.020399133 -0.005856824 0.015907478
0.014760235 -0.016080609 0.019735424
0.033367928 0.000434091 0.009922466
-0.021533856 -0.019210307 0.015964456
-0.012701101 -0.005144691 0.004197558
-0.004384143 0.008212301 -0.032179728
0.004372478 0.003995758 0.010481167
0.007346051 -0.005089947 0.020341076
-0.002626200 0.005683703 -0.006780130
-0.027357247 -0.042292193 0.031523190
-0.033265181 -0.022621540 0.008309164
-0.033593751 0.005984302 -0.010923371
-0.001553959 -0.033323620 0.001872781
-0.011559787 0.006314501 -0.003064029
-0.005648093 0.012322211 -0.005171988
-0.027534103 -0.006407366 0.012672376
-0.056642573 0.007305363 -0.033947155
-0.000483436 0.000382728 0.004638170
0.013243088 -0.010842350 0.016561221
0.024956871 -0.014529029 0.002218932
-0.052171081 -0.003948873 0.006833046
0.000602300 -0.004862647 0.012124545
-0.030870626 -0.057442836 0.036945801
-0.001139066 0.010801231 -0.007077782
0.006912405 0.000952525 0.009791414
-0.014238220 -0.009486491 0.017443288
-0.000092683 -0.002344199 0.007874086
-0.020693071 0.056031283 -0.068194658
-0.029227955 0.013095171 -0.015730195
-0.018424347 -0.010019118 0.015874358
-0.001626101 -0.003192644 0.008646213
0.004964275 0.001021524 0.006732478
-0.051422797 0.010983145 -0.035496172
0.044586655 0.032278229 -0.045281582
0.003830265 0.002949927 0.003821192
-0.010391452 -0.011509842 0.019132465
-0.008106696 0.001224235 0.002710124
-0.005829226 0.011707318 -0.003709301
0.012161059 -0.014092624 0.021049397
0.008705391 -0.016862545 0.023091923
0.033704754 -0.007083082 -0.007505456
0.018717635 -0.015081585 0.024056459
-0.005239051 -0.011679967 0.012327740
-0.016165974 -0.003669618 -0.000367102
0.008749168 0.011742124 -0.005764011
0.008369088 0.005113886 0.001607629
-0.000177804 0.000912078 0.004193345
0.011274984 -0.008902302 0.017314322
0.003057694 0.003642264 0.003924937
0.002138258 0.006497397 0.008102001
-0.000273445 -0.002746326 0.008162337
0.015417245 -0.009116125 0.015170492
-0.000447507 0.003675018 0.005203442
-0.003452037 0.002496236 0.010329316
-0.003194378 -0.003340922 0.014177008
-0.012208119 -0.042510096 0.012861596
-0.004912746 -0.003389254 0.000986518
-0.002686593 0.002932440 0.004059256
-0.009136915 -0.005397599 0.003547140
0.021575917 0.019630680 0.011395971
0.052991681 0.003761497 0.020977343
0.001796851 0.005312095 0.002151185
0.009461460 0.009008951 0.000175802
-0.006752030 0.002550343 0.009619534
-0.016003110 0.011537494 0.021897817
-0.004237817 -0.013955622 0.022032801
-0.020001389 -0.011404642 0.013682412
-0.003148980 -0.000924726 0.014342280
-0.005437623 -0.011298904 0.013554025
0.055967141 -0.013953685 0.001426429
-0.016107449 -0.007976039 0.018277552
0.000245020 0.001690103 0.004516733
0.016357945 -0.008270905 0.000631502
-0.018328970 -0.010461133 0.012373430
-0.000093425 -0.022169128 0.022870291
-0.018635493 -0.006300572 0.004848013
0.017069979 -0.059649903 0.047365192
0.023423351 -0.033343229 0.020059234
0.001550535 -0.000301425 0.005725830
-0.002491712 -0.002658373 0.007839589
-0.000913234 0.001046249 0.003326013
0.001153407 0.001500277 0.003955659
-0.004468251 0.009199671 -0.006230877
0.004794181 -0.000479067 0.001911974
-0.002786548 -0.015323118 0.010649796
0.002628759 -0.021322954 0.013901141
0.001505966 -0.021854248 0.014089491
0.007860998 -0.004246061 0.000586993
-0.024418153 -0.033741537 0.030967878
-0.020901432 -0.010972444 0.018779092
-0.006316144 -0.006073433 0.019174222
0.008658338 0.000668494 0.011730041
-0.010115041 -0.000597566 0.004484369
-0.019597365 -0.001515796 -0.003013385
0.031696994 0.051309612 -0.061822619
0.000550088 0.005851167 -0.006098632
0.015149117 -0.014478836 0.020765204
0.002069960 -0.012862074 0.018181967
0.000795780 0.000954710 0.004163839
0.034338672 -0.004386721 -0.010057780
-0.010302788 -0.010263608 0.015789518
0.005286253 -0.012017570 0.005404438
0.000977425 -0.003033058 0.008866105
0.051216021 0.017997941 -0.010118558
-0.009620482 0.008737696 -0.008763216
-0.001240287 -0.004398959 0.011081932
-0.005539733 0.013429419 -0.036504775
0.002042853 0.010043077 0.000913830
0.008265901 0.004961756 0.001729400
0.027368436 0.013861584 -0.023533026
0.000426450 -0.000838267 0.004681084
0.001333730 -0.001531324 0.005940512
0.000722582 -0.002525205 0.008491743
0.001002952 -0.003053925 0.008743634
0.038642675 0.014987512 -0.028534040
-0.018029515 0.008230082 0.007965150
-0.004698763 0.012142565 -0.013424747
0.000045685 0.000345706 -0.019013582
0.000312305 -0.000248743 0.005369865
0.020081228 -0.021989925 0.025596663
0.000851958 0.005992441 0.004337932
0.027326621 0.009372748 0.001484005
-0.008561424 0.003446758 0.000321997
-0.006775404 0.004811560 0.006833640
0.027985195 -0.014026179 0.002354309
-0.002685581 0.011632057 -0.004409444
-0.003134276 0.002541571 0.002055724
0.008127328 0.009340674 0.004531162
0.007817845 -0.016673584 0.021726636
-0.003141259 0.006058914 -0.026894698
0.051449042 -0.005938532 0.025833985
0.002310331 -0.002871465 0.004692893
-0.006693982 0.003324902 0.007114948
0.013767201 -0.010884463 0.023502970
0.030447328 -0.015140624 0.002548335
-0.005701484 0.006320883 0.005332732
0.003764395 0.001434077 0.004442065
-0.033245616 0.004989835 -0.016550632
-0.007724752 0.006949805 0.006576068
0.209106028 -0.029817510 0.091766797
-0.005954344 0.007769333 0.004847129
0.011647237 0.006836761 0.008249112
0.009385040 0.003459723 0.003572981
-0.013706022 0.001279010 0.004938503
-0.000456188 -0.000093645 0.005105041
0.002787465 -0.001428477 0.005923636
0.002964506 -0.001615103 0.008240083
-0.011987845 -0.000662288 0.001099234
-0.011940180 -0.000935175 0.005420846
0.011475610 0.008524124 0.004218620
0.012638383 0.011349149 -0.005369340
0.000340329 0.027953967 -0.030610923
-0.003849080 0.027108703 -0.031981833
-0.008290682 0.003759487 0.007507396
-0.007128998 0.011047077 0.000703665
-0.012313683 -0.018376943 0.014957851
-0.011602133 0.007106480 0.007991740
-0.010191002 0.004404319 0.006821172
0.000184231 -0.003525306 0.009181985
0.031914003 0.004549729 0.007068600
-0.047150295 0.009300426 -0.031937342
-0.008911133 0.013962777 0.013239135
-0.045275964 -0.029513072 0.014273274
0.004450059 0.008211132 -0.011261661
0.012310024 0.021559097 -0.015821671
0.049150895 0.003657318 0.013467190
0.062154602 0.071443446 -0.079320841
-0.015217763 -0.003727594 0.008642781
0.013435746 0.011547737 -0.009560653
-0.001013174 -0.003463810 0.009025951
0.000631751 0.000209932 0.005513676
-0.003080212 -0.005321623 0.010673751
-0.038334545 -0.011710495 0.003284659
-0.004668969 0.020025581 -0.007822607
0.003310795 0.012832134 -0.003290161
-0.022187021 0.030418914 -0.041646156
-0.038250130 -0.016785931 0.008230056
0.007584909 -0.001415456 0.007665965
0.007638069 -0.001387019 0.007693697
-0.006629135 0.005448810 0.004662567
-0.006908183 -0.006613770 0.020292420
-0.385722399 -0.069781475 0.167754099
-0.002957119 0.012483158 -0.004825793
-0.022503750 -0.036435094 0.012930036
0.044093456 -0.016266737 0.023051614
-0.076099314 0.037061933 0.066765517
0.010805458 -0.010787231 0.025365526
0.010285592 -0.004157623 0.019798476
0.002313014 -0.002708376 0.008365637
-0.015109160 -0.009241242 0.018561430
-0.000473379 -0.000484775 0.005990452
-0.012202168 -0.017630443 0.018558277
0.012955326 -0.004081828 0.013875905
-0.019203775 -0.018519625 0.017041774
0.011218780 -0.008895514 0.016950931
-0.016245352 -0.026064388 0.022524016
0.190159902 0.137898237 0.121511534
0.007462996 -0.006756212 0.002511431
-0.011398100 -0.000931194 0.005100397
-0.000427191 0.004848095 0.006371611
-0.003940310 -0.010472875 0.014702491
-0.018718822 -0.025223190 0.022949178
-0.008460411 0.002785712 0.009124364
-0.009887973 -0.006714587 0.020307371
0.019750819 -0.055277936 0.041141570
-0.005374743 -0.010921764 0.018165603
-0.002597859 0.002896349 0.004027306
-0.021937573 0.013987934 0.014037464
-0.012138946 -0.003382392 0.006022133
0.002749408 0.002448799 0.004740376
-0.006664372 -0.010746257 0.015073312
0.018716078 -0.003577316 0.020407114
-0.006791905 -0.007895651 0.019910853
-0.007006828 -0.012817388 0.013006734
0.005943618 -0.022096621 0.024014218
-0.008704698 -0.001452390 0.014407096
0.000878932 -0.002839371 0.008463438
-0.004593977 -0.005282736 0.000619792
0.001896098 -0.014093002 0.020767946
0.022211581 -0.003560213 0.021280074
0.010710597 -0.010598182 0.015371392
0.012465307 -0.014895083 0.023386946
-0.006584733 0.001746392 0.011406642
-0.000127911 0.001275135 0.004026975
-0.033578653 -0.023116095 0.017929345
-0.018810935 -0.031221740 0.011221696
0.053504832 -0.019980155 0.011206018
-0.001084234 0.001081355 0.004747513
0.004435595 -0.012260112 0.020930855
0.018426536 -0.003783556 0.018775545
-0.000744081 0.001917415 0.004789856
-0.002521028 -0.003438663 -0.003431289
-0.007976777 0.003580922 0.006051582
0.010901478 0.006200702 0.008888636
-0.021439113 -0.007659552 0.019164933
0.051534504 0.051099103 0.021965701
0.001363043 -0.005705401 0.011764773
0.024107937 0.008580809 -0.001086716
-0.006337439 0.002338768 0.008832035
0.023073349 0.004319511 0.004078040
0.007032762 -0.022682378 0.024852728
0.006450119 0.004520352 0.001871699
0.073988698 -0.005711127 0.018114092
0.059443273 0.001758450 0.015211695
0.002987282 -0.006921622 0.015246557
-0.000506966 0.002133803 0.003126037
-0.010454083 0.002768564 0.008431381
-0.020264870 -0.007199748 0.018362487
-0.002100157 -0.000564345 0.007256757
0.002138064 -0.017920582 0.024137301
0.012643615 -0.004519638 0.014137947
0.003562165 0.002992746 0.006143214
0.002779933 0.002516986 0.005010221
0.009247723 0.004668445 0.008595251
-0.044301454 -0.046955656 0.027806193
-0.008133041 -0.020426702 0.005714466
0.044685442 -0.079504959 0.050635770
0.018934190 -0.015075351 0.023021892
-0.001260055 -0.002068204 0.007522886
-0.017329762 -0.002217283 0.008063350
-0.006952445 0.002516044 0.009579680
-0.016063327 0.002905727 0.014752110
-0.001533214 -0.003441648 0.009287829
-0.009644281 -0.006723279 0.019608101
-0.016163561 -0.008144763 0.018073272
0.010875043 -0.006638707 0.018163042
0.028595360 -0.023342505 0.008906759
0.035035517 -0.011699195 -0.002909907
0.045593631 -0.009562862 0.001619561
-0.023470350 -0.010755803 0.018745143
-0.012823296 -0.014318859 0.015269751
