ply
format ascii 1.0
element vertex 1267
property float x
property float y
property float z
end_header
1.723506093 1.716722727 -0.875154197
0.668127418 11.304496765 0.968259931
-1.116696477 0.833845794 -0.147693098
4.269363403 3.277609110 0.961319923
1.968500853 1.722129345 -0.721810341
1.197690487 1.534590721 -0.849080980
0.262673736 2.204651594 0.234221354
0.208960876 -0.467115551 -0.345407754
-1.156795621 -0.488068908 -1.021179795
0.016558589 0.214255050 -0.524736881
4.184065819 -1.738922477 1.491346836
2.557936907 0.683280885 1.458950162
3.161636114 0.890360415 1.639233947
-1.552655816 -6.168713093 0.549634278
1.988838315 -1.490321636 -0.258666903
0.854535043 -2.160163164 -0.273067176
3.943248272 -1.336894631 1.465123653
1.128188610 2.016949177 -0.375784904
-1.858247995 0.679991126 -0.044330228
-1.794553280 0.569167316 -0.240934372
-2.350186586 1.087957263 0.401112288
0.206599206 -0.402563542 -0.345166892
-5.252377033 5.861487865 -24.089363098
-0.955017626 -0.803785563 -0.359534591
2.251555920 -0.521136582 -1.436223984
-0.862770438 1.598583221 -0.089415036
0.441094518 -0.404248059 -0.278745115
0.390658051 -0.713832080 -0.992559016
2.160793543 -0.025892055 -0.646453917
1.635076642 -0.895280898 0.234681353
-0.213145673 -0.457882911 -0.557886302
-4.030922413 2.951919556 1.546411037
26.700490952 1.471165419 -20.808860779
1.489825487 -0.123146281 0.737940967
3.375917435 -0.090740599 -0.245865718
2.676818848 3.254751205 2.009728193
-4.417897701 4.334577560 1.397832990
1.736684799 2.815462112 -0.017240550
-2.919039965 0.499855310 0.061296020
-0.012670628 0.822236538 1.003621221
-1.808825970 0.593011260 -0.827660799
-1.024984956 2.553888321 -0.437335521
2.837827921 0.733546078 -0.724392414
0.250483483 1.642992139 -0.657450676
-2.270481348 0.631689370 -0.532750368
-1.269072771 -0.520631850 -0.296727896
-2.665133238 0.124281392 -1.612109900
-0.048515130 0.073115267 -0.371455222
-1.241614461 0.951260149 -0.176658377
-1.903260589 0.692874968 -0.740814984
4.265888214 1.779357910 -0.272342622
-1.037951112 0.732458830 -0.891873837
0.350069433 -0.700400233 -0.345114052
2.429439068 -2.927428722 0.029547190
1.138167024 -0.902513206 -0.332777441
4.554990292 -2.805212975 1.380453348
2.149499893 -0.686165571 -0.227015778
-0.268126309 0.245368525 -0.346011817
1.772102833 -0.900589287 0.261725754
-1.375366449 0.917929947 -0.884793460
7.963353157 1.805071592 0.457149923
3.980879068 -1.673830032 0.169891983
1.449936152 -1.137781143 -0.396359921
1.234806776 -0.886556983 -0.321804285
-4.278441429 3.290485620 1.691452861
0.628004014 0.609966040 1.864298463
0.701587021 -0.591333389 -0.946412146
-0.072953381 0.281997323 -1.496442437
0.094076656 -0.640011907 -0.720190644
0.001641285 -0.083453409 -1.595972419
1.177920222 -1.099557281 -0.307968706
0.256639332 1.998866677 1.491734266
2.665858984 -1.783558488 0.862805009
1.221177697 -0.862949133 -0.975967526
1.546659350 -1.131051183 -1.144740582
1.927637815 -0.633228242 -0.946690559
2.309155941 -0.561406136 0.129649073
1.413222432 -0.987474084 -0.886235535
-1.327927828 -0.742413402 -0.533002913
-0.126579776 1.716286421 -0.279893428
0.620098352 -0.070621952 0.429224163
2.012319326 2.850773811 1.507852197
0.838174045 -1.246258497 -0.501431227
2.055884123 -1.968327761 -0.245944291
1.204516530 -1.068555117 -0.132147878
-0.035473470 -0.807123899 -1.009396434
3.093827009 1.020295858 -0.428622812
-0.499947011 -1.226236582 -0.280649185
-0.984632313 -0.582151830 -0.544650078
0.235810876 -0.636031330 0.267310649
0.549826622 -0.744439244 -0.293870687
0.803104043 -0.891663969 0.084300280
0.782984734 -0.346281618 -0.325536042
0.288097918 -0.968444884 0.105947360
1.084098458 1.211682677 0.138168961
0.929056227 1.273815513 -0.050140526
0.513210952 7.299523830 2.098359823
0.235918730 1.312656283 2.087311745
0.836261570 0.736334741 0.762107491
0.679902375 -0.895555973 -0.223887026
-3.429246664 4.238716125 4.012018681
3.959992886 2.427944183 1.353669643
2.417408228 1.224239588 -0.300578803
1.322465777 3.062864304 0.227083459
0.727231383 -0.228846669 -0.862815022
1.519641757 -0.482955009 -1.151154876
1.746821880 1.638361216 -0.461440176
1.692748547 1.512288928 -0.726710737
-0.656227291 -0.670337617 0.109373301
0.431091130 -0.783672512 -0.386864334
-0.283993334 -1.358800769 -0.499441445
-0.267779678 -1.102663636 -0.565998733
-0.215592489 -0.800277531 0.198592082
-0.821052849 -1.513957739 -0.775192320
0.272034287 -0.939629376 0.117760144
0.265499383 -0.217232168 0.477821440
0.109711543 -0.543233871 -1.109474063
-0.419456273 -1.230229616 -0.281525999
-0.761827111 0.197772205 -0.939494371
-0.649172544 -0.909727275 -0.976137400
0.718140543 3.150572538 1.962794065
-0.998956800 5.379411697 1.831275344
0.254374027 1.607494831 -0.498254448
0.061673652 -0.218193173 -0.314215690
0.727280200 -0.621474802 -0.305534214
0.211389661 -0.423351556 -0.335662425
0.263410717 -0.597286880 -0.310084701
-0.454590470 -0.507256806 -0.981124759
0.213339299 1.790338874 -0.407754302
0.293435127 -0.488691330 -0.339112550
1.212653756 1.542225361 -0.093337931
-1.738531947 0.867586076 -0.917898715
7.247788906 4.464273930 1.004305482
0.186479300 1.777655840 -0.416150987
-0.271539301 0.228397608 -0.331509113
-1.767553687 0.890120327 -0.950846016
-0.897852480 0.762840450 -0.229326710
1.954409599 2.048008442 -0.859126270
1.072763443 1.420308590 -0.300802648
0.941647112 1.437234282 -0.729850411
0.254949540 -0.584662616 -0.320103228
-0.214000300 1.743217349 -0.651665390
0.492145985 2.225198984 -0.138948619
-0.363811046 -0.918539405 -0.957916796
1.202724576 1.627855778 -0.113914810
-0.280635983 0.233327359 -0.332672268
0.246599972 1.995076656 0.002810729
1.556028605 2.454712868 -0.109401882
0.443015426 -0.401312023 -0.327050537
0.624694407 8.996566772 1.512835741
-3.084416151 0.623184323 1.621313572
1.099970818 3.099271059 2.145404339
-0.857767999 -1.184743404 -0.444832921
-9.001956940 2.156186581 1.409932971
0.059154268 -0.203869179 -0.334576279
0.446658254 -0.397808135 -0.202242061
0.435980797 -0.406626850 -0.324898362
-1.513264656 0.935963392 -0.185853004
-0.234235048 1.959594965 -0.192289561
3.632901907 5.631915569 -0.329681367
-2.310502291 0.787028551 -0.161524937
2.054819107 1.497978568 -0.563723087
-1.540405750 0.852148831 -0.063230939
-0.615479171 1.200544119 -0.237114117
-1.915712476 0.700948179 -0.746294320
0.408805728 -0.661718488 -0.334964484
0.446964204 -0.654569030 -0.331728488
-0.359003782 -0.907109678 -0.941925704
-2.499094486 0.889195979 -0.172471449
1.240776539 1.966832995 -0.379867405
-2.963248491 0.624552608 1.609856486
-0.696201742 1.701044679 0.420509726
-0.565263271 -0.995234132 -0.375624478
-4.846744537 -0.006214275 1.578243732
0.302083880 1.234684944 0.598748863
0.030664999 0.236794576 -1.392017603
0.227867663 0.081409395 -1.053195715
-5.227500439 0.552322149 1.642799377
1.184611082 1.552172542 -0.864400208
0.412273347 -0.669419646 -0.334613204
-0.784798980 0.914388239 -0.095016606
-0.536359310 0.292230874 -0.152934819
-0.618859649 1.152121782 0.241062522
1.306148052 2.768109560 0.240087390
0.166744798 1.728527665 -0.430811167
0.949468732 2.148385763 -0.137632668
1.741531610 1.752864718 -0.875702381
0.744919837 2.026942968 -0.169625580
-1.600286007 0.913046896 -0.194000527
-3.660417318 11.973320007 0.565518677
0.165987447 0.077763326 -0.328272164
2.078349113 2.622891426 -0.120038830
-1.837455273 0.623033404 -0.338505030
-0.131910220 1.799306989 -0.280854344
-0.708377600 2.704608440 -0.370554060
-0.871559858 2.970549822 -0.523043990
-3.768774509 3.470824480 2.244364500
-8.318431854 7.364253044 1.462597370
0.948713005 1.757271171 -0.432093322
-4.260965824 3.169458151 1.626014829
-0.281795561 2.036678076 -0.195502356
0.922434330 5.345887184 1.573034048
-1.694645524 -0.443479508 -1.007246375
0.467576861 -0.661310792 -0.329519600
-1.608064651 0.902405262 -0.102684572
-3.408304453 2.119933367 1.850881577
-4.265625477 3.137140512 1.611571193
0.344739467 -0.697623312 -0.328780174
2.154015064 3.002561092 1.540438294
0.552485466 10.089323044 1.701108336
0.952742338 1.315508008 -0.071868114
1.225348711 1.684955716 -0.112701975
0.130038679 1.570929527 0.174334079
-2.256395340 0.588501334 -0.499543518
-3.763050556 3.445408106 2.239799738
-1.111787081 0.825080574 -0.204320908
-0.837494016 2.101582766 1.970474482
1.179401636 0.007660349 -2.617026567
-1.063567638 -0.856388986 -0.717442393
-0.879720449 -1.120489836 -0.341366649
-0.977339566 1.532385349 1.776903152
0.257861167 -0.591738820 -0.330294549
-4.087239265 2.597678423 2.205311060
-3.203681946 0.718625724 -0.871431530
0.171475962 -0.072968312 -0.267467737
-4.957680225 4.120859146 2.174128532
-0.245444089 1.916932106 -0.457014889
0.333653361 -0.473102778 -0.339535624
-2.691252470 1.814827442 -1.274918199
-1.724200964 1.219784617 -0.043351393
-0.884674668 0.765550792 0.057260852
-1.841151834 0.602082551 -0.245531633
0.192727461 -2.680422306 -0.219086915
-0.771443725 -2.952512741 -0.142177179
0.910481691 -2.095968962 -0.436729372
1.558400750 -8.159818649 1.371693134
0.264555246 -0.646811247 -0.286930770
0.270599872 -0.652176142 -0.280528486
1.503432393 -1.389470935 -0.416690230
2.486381531 2.257099867 1.662522435
-2.827491522 5.110223293 2.139890909
-10.927886963 11.473050117 1.814159155
-2.820076466 1.051799655 -1.065559506
-2.589898348 -0.023642950 -0.395749986
-2.596360445 -0.062684268 -0.400350690
-1.082961917 1.679482341 0.054509021
-0.500430703 -1.420236230 -0.357291818
3.698550463 2.769006491 0.301584333
-7.117628098 4.108676434 1.211486936
-23.043066025 12.119238853 1.598413229
-9.012301445 3.855345011 1.663189292
3.341409445 52.953571320 13.406508446
1.485782385 0.611331224 -0.905660808
-2.229453325 0.384244293 -0.244699001
-2.334171772 0.114850141 -0.999606192
1.069953799 1.280743837 -0.920966208
-2.250694275 0.576609015 -0.492263377
-1.701213002 -0.459784627 -1.007093191
0.786510170 2.778563976 0.189317703
1.719143987 4.084660530 1.780423522
-1.686454892 0.806015849 -0.461521506
-0.655523658 1.308357716 -0.631384194
1.091275454 2.137404919 -0.186963439
0.668722272 1.732430577 -0.938782752
0.182120219 0.477302253 -0.316203415
-4.523815632 -0.792574406 0.250049502
-0.859071314 -1.105685472 -0.454111278
-1.445652127 -0.511693418 -0.438756824
-0.565956950 -1.212774277 -0.396868855
-2.196916580 -0.156145707 -0.354819298
-1.899107099 0.684369862 -0.879598022
-1.178844571 1.945892572 0.339689046
-5.667671204 2.689165115 1.740494490
0.671571612 9.644199371 1.291574597
0.936066985 -2.187806606 -0.508608043
-3.147600651 -5.048342228 0.767805994
-0.595022857 -1.173246622 -0.382085294
-3.625014782 0.114082582 2.614260912
-0.802683055 1.110737681 -0.323791653
0.180447549 -0.325320393 0.426438421
0.189485177 0.452773303 -0.314409435
-0.452696830 0.881817877 -0.478899091
1.064617395 1.277293801 -0.898879290
-0.910549581 1.574237466 -0.261159122
-2.228172541 0.353927433 -0.256168157
-0.677879632 0.820141733 1.937381864
0.925844193 5.707087517 1.747232199
-2.270311594 0.361076295 -0.261195391
3.051306963 5.965461731 0.367773443
-2.254907131 0.342789292 -0.270235807
0.325612575 -0.853681266 -0.350147247
2.111528873 -0.995896697 -1.004335523
2.124480009 -1.158031344 -0.947913587
2.208501101 3.292879581 -0.555372119
1.247095108 1.706810355 -0.020662818
2.716627836 5.176139832 0.376063198
0.889102757 5.410830498 1.599963546
0.776008964 2.107409239 1.793007493
0.008536966 2.189378023 -0.311784387
-2.080436230 0.657099664 -0.146451503
-1.043754339 -0.811701715 -0.964094341
3.824723244 -0.126256406 1.673572063
2.075308323 2.952900410 1.525881290
0.358400434 -0.666372716 -0.345112145
-0.833510697 0.764270365 -0.536010265
-2.575531006 -0.039081722 -0.420103580
1.229997754 1.979072332 -0.340811014
-7.098920345 3.719754219 1.850610137
-5.264273643 5.220441818 1.613348246
-9.583369255 8.406049728 1.619120836
-5.472507954 5.495004654 1.695959330
0.253483444 0.027508320 -0.318715960
4.986881256 -4.241461277 0.872175395
6.171339035 -1.566887498 0.007326291
0.692688763 -5.778763771 1.557585716
-4.620694160 -6.280912399 1.121564269
7.809930801 -56.290420532 12.495862961
2.661413431 -1.142471194 -0.258050263
0.871003509 -0.720777392 -0.379719317
0.001564595 -0.117485791 -0.332804680
12.465066910 24.268537521 -14.770524025
1.116026878 2.027146578 -1.903954506
0.661295116 0.299164951 -0.831459701
0.260754257 -0.120025761 -0.327088565
0.609879553 0.245677426 -0.280535996
-0.542127311 1.145459652 -0.182403415
6.266318321 -4.431352615 0.906851709
4.466652870 2.991644382 0.959136784
-1.583904862 -1.497705102 -0.644267738
-0.654213488 -1.055288792 -2.152326345
-1.581264853 -1.514438868 -0.679423153
2.405216217 -1.113227248 -0.199384376
-0.947782755 -0.758904636 -0.352431625
1.794569612 1.871642590 -0.485288918
-0.693572164 1.273213148 -0.252389282
-1.004937172 -0.757161617 -0.576331079
-3.003656149 1.226985931 0.170259207
-3.381573200 -0.231405005 -0.331003934
-1.093126774 -0.877226591 -0.599368513
-4.484960556 -5.416721344 1.447593689
3.479811907 -0.786152363 -0.934973300
2.570075512 -0.192975521 -0.796941400
2.067836285 -1.223364234 -0.620372772
0.454851002 -9.667606354 0.629953861
0.166642904 0.464124531 -0.333045930
0.153668746 1.938930869 -0.893439233
2.064984798 2.460380554 -0.019931376
-1.052938104 -0.791727126 -0.984515786
-1.672023654 -0.512074888 -0.515440464
-5.845115662 6.067973137 1.857506156
-0.419469804 -0.946765840 -0.158709899
-1.536156774 -0.400814086 -0.885658920
0.155600905 0.078444116 -0.319060296
0.228685930 1.807187080 -0.862479150
-2.578639984 0.032123603 1.996566415
-0.570542455 -1.138170838 -0.362368345
-0.917129695 -1.132716656 -0.353709847
0.650207758 1.307601810 -0.474483073
6.353509426 9.262859344 -2.920917749
-1.649784803 1.386283398 0.268884152
-4.427670002 3.364083529 1.732787609
-2.846673965 1.173139811 0.093962029
-0.649527907 -1.656131387 -0.344717532
-2.605957985 -0.050765935 -0.410776377
0.840377510 1.171732068 -0.344226718
0.629642248 1.477907896 -0.520449162
1.288815379 -0.936179936 -0.295490742
-4.939454079 -1.343326688 -0.076973595
-0.561121941 0.713651001 1.979806900
-0.615469754 -0.694345713 -0.363308191
-1.537651062 -1.049308538 1.856598258
5.939859390 3.314146519 0.453777999
3.190167904 -0.479886234 -0.715288281
0.399939120 -0.331184983 -0.211545467
-0.645362020 -1.193870544 -0.395838171
0.761446118 0.628080189 -0.543580711
-2.963282824 0.564165592 1.537043452
-3.002569675 0.627460778 1.599346638
2.173439264 3.485811472 -0.175344288
-4.870890617 -0.257268071 -0.201718017
-6.160332680 -1.143164635 1.367493868
-0.606218636 -1.007141113 1.768835902
0.462275892 -0.362397820 -0.224972591
-1.367915154 1.262225866 0.220765144
0.830127418 2.081620693 -0.165112659
0.270384461 -0.591321588 -0.343118757
-8.148489952 4.671742916 1.922990084
-2.084130526 1.233155012 1.679986596
-0.920401752 0.854852915 -0.215391457
0.454480767 -0.407946408 -0.269046158
-4.755918026 -0.004921096 0.863901913
0.793629289 1.632633328 -0.915958226
0.714971781 2.245105028 0.009745800
-1.688779950 1.650934219 -0.204329833
-0.945276856 -1.078901529 -0.296492040
-2.105128765 2.742436647 -0.546306252
-3.275171757 1.426515818 0.071066201
-2.230585337 0.604947031 -0.515258193
0.737382054 1.553567410 -0.615629792
0.279373586 -0.943001747 -0.542491198
0.399743587 -0.327021003 -0.254065633
0.274461746 -0.121109068 -0.323209882
-0.930148184 -1.039320827 -0.298254430
-2.307082891 0.131243408 0.009905754
-3.016501188 0.594358981 1.581641078
-1.087462425 1.676860332 0.071034938
0.228691682 1.771634221 -0.855029047
1.240472794 2.578920364 0.133455902
-0.028435901 -0.017796237 -0.329586267
-4.933086872 0.511729181 0.982173383
-2.659732819 5.203878880 2.145584822
-5.446719646 0.841298401 1.131889701
-5.073220730 0.593183696 1.023756504
0.677867651 9.473892212 1.564655781
-6.652623177 7.736843109 1.717693448
0.466360241 -0.610152960 -0.497497022
0.342957050 -0.495740116 -0.224024847
-0.269271284 0.224276856 -0.330704689
-1.006831646 -0.784449756 -0.405420303
-1.494560122 1.661703587 0.346807361
-7.659280300 -4.266056061 -4.176431179
-0.301936924 3.316471577 1.218259811
-5.729547977 1.115499616 1.683612823
-1.826255679 0.646382093 0.045393728
-1.340142608 1.222925067 0.094742186
-5.020759106 0.321166933 0.721867323
-0.566009104 -0.896285355 -0.303877443
0.923504472 -0.633035660 -0.667427063
-0.240726635 0.046820961 -0.782384992
1.292941570 -0.894547760 -0.323585272
1.866323948 -0.818454087 -0.328147531
1.896147609 -2.352002382 -0.397919983
0.335435331 -0.839320481 -0.342426419
0.328021228 -0.851009130 -0.349803180
0.178187385 0.479824424 -0.317831397
0.206557781 1.821210265 -0.855469286
-1.165022135 0.860910177 -0.179705530
4.602959633 2.822960138 0.306814224
-1.006271601 -0.789000094 -0.961106360
3.378947020 -1.099760056 -0.122895345
1.105728626 -2.405855656 0.035437003
-6.528280735 -1.107908249 1.541775942
-0.207091168 7.884389877 1.710732937
2.171339512 1.534236670 -0.028588166
0.485017240 -0.694026589 -0.333760321
-0.927099168 -1.072636127 -0.293570101
2.582020044 -0.028318690 -0.788243890
-0.275617450 0.231389910 -0.329277992
0.835237145 -1.378608108 0.964802265
-1.763315201 -4.686108112 0.087359995
0.146341652 2.071053267 -0.967728853
-0.984011352 1.645577312 2.821561575
-0.600928724 1.910043836 0.531226039
0.800247431 0.142806396 -0.347579628
0.165196106 0.899361610 -1.642006755
-5.779608727 -3.339216471 1.492433429
-0.046401095 -0.011755592 -0.330654263
0.376919657 -5.604521275 1.349368453
0.414795041 -0.529415071 -0.592233956
-1.506537914 -0.577668607 -0.177558392
-0.121013030 -0.952598929 -1.721533179
-0.894023836 -2.918777704 -1.083084226
-3.203824520 16.968694687 0.951786876
-0.541292369 1.724580288 1.553693414
0.256077647 0.019915428 -0.322960138
0.401949108 -0.332248509 -0.212545425
0.105963491 -0.739319861 -0.474986434
0.110721722 1.910503983 0.176487193
-0.295276999 1.985366583 -0.189588681
-0.775969028 1.679538012 -0.186126173
-3.959580421 -0.676541448 -0.039923865
-15.626554489 8.177467346 3.683725357
-0.562106907 0.706967831 1.924378872
0.252675980 0.021476107 -0.323628426
3.923356533 -0.070501216 1.731620789
-2.764748335 -4.161122322 0.226855382
-3.194569826 -3.391065359 0.351662993
-5.283946514 2.411148310 0.436873823
-0.435946733 -4.315637589 0.662641943
3.070913315 0.683994412 -0.258188039
-6.329876900 -1.824952483 -0.990140021
-4.140982628 0.013501910 1.604694128
-2.324916124 0.112234525 -1.007276177
0.268870145 -0.610316932 -0.339394778
-1.837046504 1.119588733 1.776801586
-1.241583467 -0.909123123 -0.806067050
-4.998830795 0.011257291 0.887714565
-4.223384857 0.020646453 1.634201765
-4.766046524 -0.173156366 0.798926234
-1.139448524 -0.759911060 -0.648122907
0.635510862 11.390620232 1.902733684
-4.647867203 -1.584417582 0.349419624
-7.302649021 -2.669154644 1.316044807
-2.112411976 -4.105714798 1.511501193
-3.583541155 -3.988456249 -0.109505966
0.381966084 -0.319185168 -0.327789903
2.711532831 -1.180991173 -0.260755658
1.958942771 -6.792387009 0.299040079
2.399676561 -2.338008642 0.037126936
-1.934171319 0.754747033 -0.537488282
-0.957228661 -1.038342357 -0.285768062
2.331981182 -0.565768600 -0.918963134
0.868804932 -1.488682866 1.927481174
2.790345669 -1.241592407 -0.954630136
2.613665819 -0.965152264 -0.971430004
0.577239335 -0.237647951 -0.668621659
-1.151989222 -1.066839218 -0.348859847
-1.023336172 -1.059039593 -0.337534428
0.665138960 -0.635528147 -1.061888099
-2.293303967 0.480280668 -1.008000970
2.511851549 -1.582717538 1.462777138
5.013067722 -3.139247179 1.430563569
-5.579357624 -1.277639270 -0.641516685
1.345399618 -1.047557354 1.008126974
0.254142940 -0.119397648 -0.329050064
-1.057347417 -0.909735680 -0.764445603
0.244132861 -0.400896847 -0.245199114
0.374309212 -0.500464439 -0.203315809
0.343295366 -0.708998501 -0.299894154
0.325394183 -0.844519198 -0.352872312
0.257543951 0.891852498 0.522423387
10.976196289 8.235688210 -16.651739120
0.656727314 0.046098880 -1.351065278
2.152852297 -0.483869463 -1.388782382
2.107381105 -1.227721453 -0.564693332
1.122733831 0.068667702 -0.610037684
-2.538589716 -4.899091721 1.331594944
-6.112440586 1.489164710 0.992969811
1.131862640 -0.887259066 -0.998203397
0.490868986 -2.355504990 -0.560171723
1.323559165 -2.012881756 -0.645743787
0.203828633 -0.499227673 -0.341713250
-0.764636695 1.417251825 0.072304577
-0.982628584 -1.595843315 -0.667150140
1.728650928 -1.342850089 -0.795477450
2.317135572 12.917798996 -10.313936234
0.010513911 1.141005635 -2.009644508
0.323813856 -0.850638568 -0.352101803
1.147761226 1.318365097 -1.268755078
1.206126571 0.247264832 -0.333522320
0.748255491 -0.135305107 -0.839795589
0.907745004 -2.214390516 -0.706264317
-0.621816874 0.623051584 -0.495641768
-0.309798628 0.716736019 -0.594188035
0.082484283 -2.364142179 -0.738733053
0.333340317 -2.473634243 -0.291427225
0.795433342 -1.216922045 -0.484988481
7.612277031 -5.819582939 0.902348459
1.367468357 -0.852418602 -0.310851187
0.488218099 -0.678872466 -0.336650819
0.108411200 2.337831020 -0.165270910
2.617801189 -1.127880812 -0.180235788
1.133923531 -1.132788777 -0.762385190
-1.103516459 0.811608672 -0.136683807
1.225392222 -1.047814250 -0.448022842
1.109117270 -0.372571945 -1.508708119
-4.747839928 -1.036819577 0.168388650
0.303413928 -0.298313349 -0.991062224
-5.054282665 0.059434995 0.580422223
0.079822809 0.039371934 -0.331327468
-3.965939045 -1.371812344 0.355798423
-1.331626773 -0.527673841 -0.413506508
-0.327441901 0.884062052 1.872289181
-0.322191328 0.864529610 1.845997095
-7.576180458 -2.790222883 1.517667532
2.918911695 -1.810617924 -0.872006536
-0.367349327 -0.663716972 -2.022232533
0.497084051 -2.489423752 -0.865591824
1.451725125 0.089646049 -0.911911130
-1.705723763 0.803539336 -0.464887947
-2.739029884 0.789843798 -0.285597026
0.664311767 1.060159326 0.976491928
-0.712845564 7.759703159 1.701437712
1.237395287 2.454056263 0.144598976
-0.002209933 -10.740916252 4.480874538
0.068625197 -2.224738121 -0.954325080
1.850818515 -1.599265695 -0.243499726
1.356672049 4.720283031 -4.095468998
0.552158415 0.622215688 -1.245847225
0.233320817 4.282971859 -4.472192764
0.707598805 -0.098373719 -0.960532665
-6.020559311 1.203114867 1.761712790
0.777477801 -0.565133929 -0.665332258
0.492496550 -0.688286662 -0.318426341
0.646069825 0.936003864 -1.384955645
2.087412596 2.934480906 1.748144388
-0.642109811 1.145465493 -0.445757061
-3.108671904 -1.114509702 1.517797470
-2.368831873 -1.679106355 -0.045982767
2.419923067 -9.689325333 1.204847455
1.120166183 -1.082222104 -0.299958527
0.467109114 -0.660973310 -0.334105492
0.793981731 -0.541460514 -1.099511385
-0.813433945 -1.482174158 -0.602072656
0.012284408 1.976154447 0.164613262
-4.801708698 2.625866890 0.363722920
-2.804674149 -0.245626986 2.126658916
-4.759964466 -0.360134542 0.740465879
0.199057519 1.756633282 -0.422030419
-1.191043973 2.579502344 -0.122552171
-6.630913258 0.120533861 2.041408062
0.330066562 -0.698013127 -0.299041510
-0.756053865 1.056068301 0.043266293
-0.619795978 5.752867222 -4.408962727
0.409991145 2.192663431 -0.061264046
-4.231046677 -0.610670030 -1.122889519
-2.729297876 -0.202751696 -0.796365678
0.429720253 -0.988269985 -0.032451574
0.082962528 -0.551755250 0.184665501
0.411509037 -0.996292472 -0.015205873
0.391363889 -0.998662949 -0.000530058
0.389203310 -0.999099255 0.001286746
-0.348411053 -0.897340894 0.065560311
2.593806982 -5.557806969 1.731288910
-2.462507248 -4.559310913 1.502936244
-0.608992279 -1.819629192 -0.378877521
-1.325098515 -0.529265583 -0.355765015
-1.751239300 0.975200772 -0.160559997
-0.595081031 -0.957485795 -0.544262588
-0.976482213 1.543639898 0.049148098
-5.718271255 1.934065700 0.490570694
0.737080097 -1.159651637 -0.963014305
-1.917593360 1.387150049 0.000251627
4.606731892 -1.022947311 -0.025038758
0.134447157 0.514529824 -2.545257330
4.605366707 0.865955532 -0.776919961
-2.138598919 -6.184149742 1.587480903
-3.064143419 -4.638678551 0.732357919
-3.182539463 -3.317039967 0.329192281
-1.861176729 0.065050714 -0.827642798
-0.445926189 -2.774008274 -0.158337429
-1.941148043 0.748060346 -0.544336259
5.956417561 -5.666690350 1.336656451
2.310106277 -0.560298979 -0.913400590
1.495511532 0.601645410 -0.915439844
1.810817838 -6.595271111 0.084406033
1.819072604 -0.775008500 -0.312370807
-3.218635559 -3.393332005 1.487241626
-1.186655879 -0.547199845 -0.279372215
5.190180302 -2.897710323 1.601779938
6.050388813 -4.350691795 0.174672097
0.200489283 0.701054096 -2.564627171
0.807452321 0.119574234 0.045311842
0.806648612 -0.346352130 -0.763714790
0.655845344 -0.685451627 -0.421608865
0.626012206 0.110259652 -1.541325212
0.231577113 -0.141701564 -0.327442050
-0.214153245 0.232281998 -0.507473350
1.135920763 -4.790795326 0.243317351
-2.017789841 -0.859874308 -0.576967657
-2.092979670 -0.530739009 -0.997312129
-1.684514880 3.294730902 0.199565008
0.168048069 0.087439470 -0.328660905
0.133772120 0.041178826 -0.329874605
-1.171850562 -2.507007599 1.837663174
-9.368473053 2.071757317 0.326208502
-0.823170900 -3.083225489 1.653487444
-4.414851665 -0.579380333 0.056231979
0.336841345 -0.492500603 -0.226695716
3.731121778 -0.165137589 1.616618991
0.492730051 -3.739430666 1.566374421
-0.380803555 -1.098327518 -0.931317627
-0.918538332 0.844385326 0.078513965
-5.400363922 -4.828202248 0.294152766
1.777143598 -2.453746557 0.877821267
-0.622887135 1.857981682 0.170909226
-0.405198336 2.193161726 -0.259168178
-0.636946797 -1.260791779 -0.508901119
-4.618838310 0.834727705 1.533466339
0.488617450 -0.622900307 -1.003311276
-0.053710755 0.882883489 0.586816013
-0.536379814 1.175801873 -0.282740235
-1.763170600 -1.312983394 1.453831434
-1.298036933 3.248864889 1.320362806
-42.074272156 64.076705933 15.258403778
0.739696264 -0.985155523 -0.470623761
-0.663201392 -0.948239386 -0.362209082
-3.513494015 0.764892578 0.097678497
-1.983619809 -1.401446700 1.518192649
0.782740355 -0.127551317 -0.272383541
-4.492938042 -0.195913896 0.724395216
0.654192686 -0.680413485 -0.414067000
0.534068823 1.148314953 -1.946440458
0.958309889 1.102287769 -1.190339923
0.017288875 3.316756010 -2.748116255
0.650949061 0.339055359 -0.872250140
0.368554533 -0.672558665 -0.277135909
0.356105775 -0.003469095 -0.822709322
0.502317786 -0.350229442 -0.991173148
-1.094512463 -0.746934652 -0.816122890
-4.140599251 -1.351874590 0.383888543
-1.138913274 0.901239991 0.031347837
0.244015291 0.312356323 -0.432199240
0.270271838 0.016715584 -0.319738626
-0.833902955 1.100215912 -0.139402419
-0.049919061 -1.981078386 -0.411039352
0.366061270 -0.721691430 -0.854115725
0.539587379 -0.597914338 -1.081972599
-1.639799833 -0.352989018 -0.219651937
-1.966103435 -0.569283485 -0.699930191
-1.053320646 -0.910587966 -0.383191764
-2.126807451 -6.070838451 1.032976389
-1.327104688 0.807557940 -0.129007578
-0.719461203 0.515727460 -1.586416721
-1.012878895 -0.844822884 -0.569449484
-4.137956142 -4.982554436 1.346098781
-2.826304436 -4.335307598 1.612485766
-2.235364914 0.574406326 -0.547737718
0.342272371 -0.683292687 -0.291331977
-44.638652802 68.765228271 2.697993517
-1.555172443 0.489305735 -0.216597915
0.655935884 -0.693659842 -0.444615602
0.743306816 -0.507393181 -0.323328018
0.216605142 2.334150791 -1.997734547
1.309663057 -0.339039057 -1.022878408
0.205311924 0.153717339 -1.120305181
1.241942167 0.704942644 -0.336853623
3.701603651 5.591640472 -3.436881065
0.740875244 0.001069575 -0.439278036
0.228793323 0.340925962 -0.540423870
0.335908741 -0.479168266 -0.195637450
1.305737376 -2.669018984 1.638565779
0.630127907 -1.657335877 1.993983746
1.433892727 0.589083374 -0.909634829
2.505315781 -1.143967628 1.684202313
-0.531976640 -1.188098550 -0.436829269
6.202903748 -4.456168175 0.235528469
2.235192299 -0.396018893 -0.384921134
-5.461721897 -3.148097515 1.436265707
0.098703071 0.457978666 -0.522961020
-3.120955467 -1.996774673 1.551501393
-1.523932219 -1.147002101 0.164288431
-0.700657725 -2.901970387 -0.000784681
0.259657323 -0.123109594 -0.333850831
-1.202745199 0.787001193 -0.094282798
-0.955160141 -3.663334846 1.538696051
-0.412419498 0.980304718 2.094951868
0.610860884 -1.702150106 1.964948654
2.139087200 -0.576002061 -1.378157854
0.482695520 -10.045120239 1.302781940
0.247651994 -0.424223274 -0.227531359
-1.984787941 -3.813109636 1.425217390
0.361424595 -2.090274096 -0.721426368
-0.496374756 -7.888705730 1.336758614
0.108232647 -9.079114914 0.599630773
-26.798114777 62.554481506 -20.243068695
0.104064398 0.463959992 -0.550907135
0.180520579 0.403564364 -0.934274197
0.128723457 -0.089578457 -0.380631506
0.385065615 -0.821733236 0.282239854
0.789601088 -0.528232336 -0.484131783
0.009224450 -1.820830941 -0.918885708
18.177938461 21.730056763 -39.019584656
0.581420004 0.190635100 -1.800794482
0.699556112 -0.046466112 -1.058117986
0.321030885 -0.848448157 -0.358418018
-0.951801717 -7.329431057 0.209665239
0.183510184 1.669981718 -0.388579041
0.823489547 -1.004219294 -0.210164055
2.499700785 -1.109986067 -0.228902578
2.559327364 -0.049705651 -0.771031916
-3.365285635 2.092695236 1.808593869
-1.178462744 6.045244694 -1.431728959
11.637027740 6.548011303 0.812414467
3.728267193 -0.427290708 1.555139899
-0.710723877 0.786292553 -0.891633213
-2.448748589 0.742395759 1.715726733
-5.455923557 1.502309561 0.700476229
1.173406124 1.664823532 -0.279429942
-0.537246048 -0.984077394 -0.348786384
-1.831581473 0.608880997 -0.323197573
-1.046550393 0.817830324 -0.947064161
-2.676633358 -0.091151014 -0.284007698
0.257593602 0.002784162 -0.329011053
-2.561260939 -4.547000408 0.445262074
0.189396515 0.487688273 -0.314053297
0.774857104 -0.604377568 -0.336450726
-0.888406813 -2.880970240 -1.089719534
-1.191368103 -0.524303257 -0.278939605
9.299399376 11.265442848 -62.737369537
0.154946446 0.440157115 -0.973278701
-0.324550271 2.025974274 -0.194028661
0.239278719 0.338970542 -0.435525835
3.329287529 0.908935606 -4.655665874
0.678992033 -0.269396812 -1.066561222
0.743179858 -0.820430100 -0.584744692
0.381488413 -0.313063830 -0.333900154
0.484086812 -3.158917427 -1.082171679
-2.305397749 0.371317565 -0.153925195
-4.676961422 -0.531585872 0.240372837
6.662992954 1.245030642 1.402928233
0.446167797 -2.255894423 -0.912576437
-0.563994825 -1.026678443 -0.363120288
0.236546218 -0.396200836 -0.258095473
0.436981887 -0.415026486 -0.325979561
-2.472689867 -4.620508194 1.484091163
-0.579119027 -1.139670849 -0.360286623
-3.782314539 0.509224772 0.631732106
2.347382784 -0.563393891 -0.930686533
2.144223452 -2.069451094 0.033261240
-1.742859364 0.790152609 -0.671559036
0.812499344 -0.965757489 -0.602705240
7.717856884 1.405961752 -29.662422180
0.815914035 -0.897376537 -0.518692911
-0.065913573 -2.135064602 -1.069434881
-18.161136627 -30.435796738 -22.057281494
0.437099367 0.325502664 -1.436766505
0.401699632 -0.326273441 -0.300551325
-2.264978409 9.216037750 0.512479901
-0.624676943 -1.650324821 -0.329625785
0.268514484 -0.593847096 -0.319152385
-2.092615366 -5.000427246 -0.342679560
-1.404324293 0.962871015 -0.921101689
0.187221184 0.038628686 -0.332223535
0.336395890 -2.382473946 -0.315180272
-1.607517958 -4.263942719 -1.265253067
0.901605368 -2.020300150 -0.303107947
-0.401999712 -2.947744608 -0.117617890
1.805397272 -6.544221401 -2.543653488
-0.432234764 -3.232143402 -0.113274619
-3.753301859 -0.225507706 -1.162869692
0.290718675 -2.701277971 -0.357744634
0.874735355 -2.002636671 -0.288129151
-1.443909049 2.036373377 0.174256772
-4.154304981 -1.407655478 0.387182951
-4.593535423 -0.783555984 0.273912519
-2.562874079 -0.271971196 2.001578093
-0.035335701 -0.004352249 -0.337258220
0.344831258 -0.482786119 -0.279582649
2.366721630 -1.359064221 -1.061156511
2.655503035 -1.168384910 -0.237479553
-0.490001529 -1.217059970 -0.783420324
-2.003747463 -1.419387221 1.510861874
0.062599957 -0.207351938 -0.334482521
-4.608927727 15.651828766 0.453585893
-5.453743935 -3.144778490 1.444344759
-1.005355477 -0.257714570 2.004855871
0.510925829 -0.694680631 -0.913563907
-7.032897949 11.006005287 1.840920806
-5.569473267 -1.672510386 0.461101532
-3.837839127 -3.415395737 -0.167151317
-1.215654969 -0.565224946 -0.276779294
-1.516556859 -1.382036090 -0.005452899
-1.700827003 -0.692716002 -0.676270068
2.701973438 -0.266429275 -0.245424792
2.908956051 0.754119158 -0.747579694
3.448243141 1.144679189 -0.946824372
2.721150637 0.669189692 -0.719104469
1.328469276 -1.111814618 -0.941406071
0.119227052 -0.372651458 -0.352998167
2.421383619 -0.867339253 -1.727567196
0.453481615 -0.410201490 -0.216930434
-1.953445077 -1.383044600 1.509977341
0.708107769 -0.626078129 -0.528576493
-2.476268530 -4.804467201 1.512758374
-4.202714443 -1.338829994 0.355550855
-5.197122574 0.843584061 0.751845956
-7.729102135 8.955207825 1.970965147
-6.251951218 -1.042539835 1.499846458
0.434256613 -0.780160844 -0.027911922
-0.265305519 -1.224015117 -0.861829638
2.634990215 -1.676393509 0.848184407
1.291375637 1.502299786 -0.508661866
0.391095966 0.862618148 -3.446586847
2.275564909 -1.662036419 -0.033742636
1.768149734 -6.478932858 0.011485157
1.044586658 -0.724879622 -0.885870397
-0.306251884 -1.369674325 -0.389225394
2.719343424 -1.198817849 -0.220706552
-0.308692455 -3.207965612 -0.212138951
-2.503911257 -4.741405964 1.479582787
-0.258429497 -4.038792133 -0.001572867
0.891155243 -2.023694277 -0.297841996
1.423459768 -2.174014330 -0.425421774
-2.182439089 -2.291760683 1.410707951
-3.237665653 -3.347471476 0.362500817
-1.513196468 1.136170387 0.012230844
-1.466796398 -2.675062418 1.952499509
-9.576962471 19.921779633 2.112085819
-1.897919178 2.245703697 0.360414237
-1.167587042 -2.791111469 1.942676663
0.769284785 -0.605910838 -0.341920435
-7.277178288 -0.704388559 1.568632960
0.144215629 -2.499308586 -0.660400867
0.784505069 -0.598185301 -0.331251562
-2.025064468 -0.608948290 -0.058986221
-2.733874798 -0.131337523 2.104437828
-3.834650517 2.426901102 2.078831196
-2.257579565 -2.346247196 1.453583598
0.306895077 -0.659967303 -0.302849203
-7.304741383 -2.686314344 1.334971786
-2.499181271 -4.668730736 1.501946568
0.645949900 -1.859414697 -0.227208063
0.465509087 -0.435801685 -0.164718807
0.286696017 -0.477465719 -0.344050825
-1.015718222 0.909078181 0.056400951
-0.616413355 -1.136163592 -1.096492529
-0.025988217 -0.019392885 -0.327489644
-0.836725116 -0.810890734 -0.322810292
-1.440821171 -0.531851470 -0.398883909
0.497960299 -2.323305845 -0.564534307
-1.981432796 -1.348435402 2.217357635
-2.899210930 -3.091872692 0.324053198
-1.611963749 -0.353978425 -0.392783672
-2.755669594 -4.183696747 1.547405362
0.304407179 -1.806244016 -0.855667353
-2.620628357 -4.002818108 -0.207536846
0.714512110 -0.596101463 -0.475491941
-0.594590008 -1.858835220 -0.344921291
4.388214588 -11.178806305 1.098244667
0.469818205 -4.112115860 1.695938826
0.502770960 -9.374223709 0.615425050
0.979847550 1.504205585 -0.767349482
5.347365856 0.675990522 0.863814294
2.798883200 -1.802909136 0.875000238
-1.039703846 1.743658304 0.081729002
-0.904672921 0.771302283 -0.134555638
-0.986588120 -1.077008963 -0.782243967
-0.735101461 -0.755139887 -0.331644028
-5.360927582 1.079501748 1.613414407
-1.720006108 0.614180982 -0.033736389
-0.948813379 -1.042839885 -0.547486186
2.397852421 -0.576138556 -0.854071856
3.832181215 -3.256870508 -0.170835346
-0.403143346 -2.895821333 -0.547462285
-2.037604094 -5.369151592 0.056653429
0.006130293 -0.014191114 -0.348057091
0.836000025 -1.977488875 -0.262093604
-1.729415298 0.122123331 -0.363148063
0.102257565 0.459427297 -0.529418349
-4.793180943 -0.652142048 0.026292523
-3.162365675 -0.277671635 -0.796157539
-2.601543903 -4.491003036 0.642784238
-4.474711895 -0.979278862 0.254265577
-4.555878162 -0.223207965 -0.173824251
0.497993290 -2.327610493 -0.840161920
0.253665805 0.022684434 -0.318761408
3.219815493 -0.487809628 -0.730113029
3.495969296 -0.825841248 -0.436345339
-4.849508286 -6.608080864 1.493975520
1.097769141 -0.865025640 -0.303846538
6.288383007 1.351645470 1.031529903
1.096402526 -0.893569350 -0.325531214
2.701879740 1.548309922 -0.808100104
1.207797170 -1.719270110 -0.487894952
-0.943651021 -3.440697908 1.437593818
-0.887034118 -6.514641285 1.449283838
0.928784609 -2.153462887 -0.450331420
3.276273489 0.464173466 1.476439476
8.441364288 3.026502371 1.095337391
0.256087154 -0.598211169 -0.308557957
0.336383194 -0.515058994 -0.384796232
5.345055103 1.423063755 1.502171993
0.266879439 -0.376551002 -0.287812680
-6.066381931 -5.017560482 1.410950065
1.041494727 -1.729131460 -0.080075711
-0.386957049 0.682384133 0.503947258
0.230287388 -0.056116052 -0.327014923
0.163065150 0.080678880 -0.327328175
2.117123127 -2.037812471 0.032866199
-0.743210137 1.032172084 -0.187594518
0.134332061 -0.224792272 -0.357694119
-0.646698654 1.386185288 -0.344894856
-0.747550428 1.574482799 -0.605938792
-1.941280484 0.720190644 -0.455047637
-2.698905945 0.627680540 -0.753114522
-2.356755257 0.746482134 0.013953908
2.302444935 -1.198529243 1.683814287
3.118204117 -1.005943179 -0.569090664
2.905652523 -0.972665191 -0.234902486
-1.955494642 -1.396300554 1.547926068
0.362253249 -0.293104738 -0.213170737
-1.506851435 -3.885411024 -0.831535459
-1.805706263 -4.867475510 0.863974631
-0.349605709 -3.408828259 -0.219850883
-1.359067559 -1.839449167 2.707159281
-7.432816982 5.129921913 1.061688542
0.075700097 -2.359220266 -0.750007570
-1.033735633 -0.796611726 -0.976652682
-2.843594074 -0.346448362 2.207226753
0.584944308 -5.959977627 -0.190535232
-3.034032822 -0.799982786 1.168716669
-0.246641278 -2.146646738 2.642501593
-3.135613918 -0.235339940 -0.764773667
-2.193668842 -0.277293295 -0.292328209
-1.402332425 1.828414679 0.361666828
-1.484385371 -1.103793383 0.182191864
1.552546263 -1.403848052 -0.425713211
1.069566727 -1.478022695 -1.946363091
0.106797166 -0.379928768 -0.338657856
1.078414321 -0.713675201 0.027338352
0.220192552 2.317853451 -0.134879500
0.500077248 -2.415509701 -0.579362690
-1.474483490 -1.144230366 0.185653791
-0.451696336 -2.826052904 -0.179598644
0.413010985 -2.737555265 -0.758167565
-2.977933407 -4.429417133 0.691082597
-0.309913754 -3.188344479 -0.297523856
-0.702221632 0.707753062 -0.689276099
0.248135239 -2.627279282 -0.351921350
-5.210832119 0.798176408 0.746316195
-0.738817394 -3.222086191 -0.946189702
0.478073657 -2.613118887 -0.375479311
0.754525244 -2.801439047 -0.377605051
-0.825060248 -3.125194311 1.679643512
-0.931374311 -1.107015848 -0.636211634
-2.637392044 -0.008478330 2.011496067
-4.153660297 -0.920454979 0.258100390
-1.981554031 -5.225287914 0.044597700
-0.376106173 -5.229560375 0.039648719
-1.110827327 -0.766718090 -0.369611740
-1.018863320 -0.807860613 -0.954713225
-1.131753802 -1.521302342 -0.903219700
0.303109974 -5.855144501 1.378167033
-4.760298729 1.372508407 0.220837206
0.304665923 -5.598151684 1.335884452
0.376988918 -5.992348194 1.436966300
1.262402773 -1.134459615 -0.342620492
-0.140741274 -0.011165590 -0.559178293
1.467938066 -0.755204678 -0.856928647
1.338508606 -0.820466936 -0.892393231
0.844639599 1.904430866 -0.135948122
1.215456963 -0.970646322 -0.363618374
-7.262057781 -0.275262475 1.042526484
-1.320237041 1.205175996 0.089735143
-7.752639294 0.913626194 0.987673163
0.322540522 -0.840679467 -0.356842667
1.876770258 -1.858244658 1.612309575
-2.033576012 -1.344236493 0.204841971
-2.046328068 -0.626117110 -0.009509859
0.253773659 0.020019969 -0.319693208
-0.923172653 -3.437671900 1.446624517
0.202816740 -2.539131403 1.106461883
-2.018848658 -0.640381098 -0.049518194
-0.466404051 -1.167999983 -0.795144677
0.895821750 -2.098832607 -0.300832778
0.839292526 -0.278969854 -1.036707163
1.259551644 -1.073236704 -0.873137712
1.036728263 -0.711994171 -0.900378406
0.255567431 0.017145075 -0.317810595
0.736245930 -0.213752344 -0.500020266
0.081714012 -2.278282881 -0.703591108
0.732970357 -2.796105146 1.545839787
-15.446295738 -14.444980621 -0.377405584
0.605706751 -2.505027056 -0.340499669
-2.742119312 0.929053664 -0.763331115
-1.589471698 -0.381164014 -0.513208508
-1.034912467 0.943665981 -0.208347112
-4.641425610 -1.225134730 -0.254855245
-0.287686408 -3.092889547 -0.338288963
-0.940502286 -3.537348270 1.485019684
0.162949517 0.072628036 -0.326812953
1.530650258 -0.202473789 -0.945589900
1.385925531 -2.336564064 1.837575555
7.588744640 4.033662796 1.054404616
1.432652116 0.599242926 -0.920744956
0.684839785 -1.198679209 -0.012119765
0.707373202 -0.586159587 -0.516556203
0.887372434 -1.293414235 -0.050259653
0.363744557 -0.692134559 -0.367005110
0.506530344 -0.646464705 -0.369901240
1.343770862 -2.030784369 -0.154931471
2.325578451 -0.886392593 -0.435065717
1.136276960 -2.662457705 -0.055744261
0.534947455 0.381973743 -0.527015924
1.249937773 -6.837465286 0.174621597
0.185263813 0.480196774 -0.319175363
0.601373911 -1.631545067 1.952820063
0.673758268 -0.493886083 -0.452104658
0.718182445 -0.682390213 -0.555678964
0.698723257 -0.681999326 -0.579489172
1.266729951 2.696514606 0.225904539
5.268592358 1.443953633 0.723375380
-0.188199550 0.236145675 -0.994899452
-3.336704969 -4.165326595 0.519461334
3.462156296 -0.378096759 -0.332467675
-0.294058293 -2.486131668 -0.278355986
-2.004692078 -0.743027866 -0.111062460
1.984084964 -0.517516196 -1.142592192
1.397533655 -7.822102070 1.291494846
-1.896777153 -5.966476440 0.667366087
0.006477447 -0.004048277 -0.338537127
-3.271414757 -2.096724033 1.625164509
-2.539648533 0.124580391 -0.389131159
0.703350782 -0.535336316 -0.952710927
-0.903652251 -3.542540073 1.508619308
-1.190903783 -2.790056229 1.953353763
-0.219147384 -4.158241272 0.062671669
-2.502308846 -3.445383787 -0.074855715
-3.172024965 -5.272471905 -0.275275558
-5.115803719 0.016653648 0.772972822
-2.141422749 -6.292077541 0.884368420
-0.449630648 -2.196085453 -0.612693906
-2.007649899 -5.356830597 0.652804017
-1.524800539 -1.178867698 0.199706480
-5.650990486 -6.393471718 1.400074005
-1.391954303 -2.650239944 1.927773356
-2.523739815 -3.857856989 -0.195950568
-0.752680898 -2.740405560 -0.610358834
-1.940289259 -0.620315433 -0.097243860
0.710111380 -0.574564576 -0.971125305
-0.029341137 -0.022365252 -0.333966583
-1.924225450 -1.251585007 -0.042593766
0.407183677 -2.162220240 -0.655794740
1.443965077 -0.917964518 -0.320092291
0.803759456 -0.748762667 -0.398659199
-7.472636700 -2.128902435 -1.029156208
-1.061712742 -0.871320546 -0.727436543
1.871923566 -0.815882683 -0.328905046
1.011882544 -2.604536772 0.053420328
2.713266373 -0.348953664 -0.423037857
4.698054790 2.669260263 1.526865840
6.979547024 2.288492441 -0.369583815
-5.009580612 0.068918556 1.587531447
-2.156621456 -1.473879814 0.206873149
-0.337419510 -0.359570980 1.426272869
-2.323301315 -4.110525131 -0.225637540
0.320051253 -0.490646511 -0.202745035
-20.923707962 25.128559113 -4.187027931
0.399974972 -0.789731264 -0.616338253
0.272827148 -0.405260086 -0.324209154
0.399003059 -0.350463182 -0.190264910
-1.755679607 -1.158282042 2.001959085
-2.487766504 0.357374847 -0.304972589
0.069039926 -0.201041549 -0.333778739
-0.813415825 -0.897091389 1.285183311
2.274434090 -0.381322592 -0.937284410
-0.469498038 0.604485035 0.301551223
2.201189518 1.735914469 -0.608748257
1.267674446 -0.519702852 -0.994679332
-0.977047920 -0.549002349 -1.343552351
-2.007433891 -1.380402565 -0.022637982
-1.008087993 -0.793665111 -0.974415839
-0.589877903 -1.559794188 -0.984299004
-1.060583234 -0.852899075 -0.608609855
-1.078667402 -0.864064038 -0.374949008
-1.119006395 -0.776504457 -0.377170771
1.127784252 0.673806548 -2.313277960
1.872567654 -1.588881373 -0.247384474
3.031391859 -1.036572576 -0.282163739
3.290340185 -1.160448194 -0.640986443
0.529550493 -3.329884768 0.077902541
0.018264286 -0.154229149 -0.333692491
0.473410934 -0.706857026 -0.327920645
-2.255800009 0.235341728 -0.391417533
0.487400651 1.124889970 1.054298043
0.920236886 1.732605338 -0.678756237
0.532379746 -2.446976900 -0.832607925
2.816408634 -2.146260977 -0.362407535
2.236004114 -1.642653584 -0.296910673
2.158207655 -1.554938555 -0.275783509
-0.940238953 -3.090762854 -0.444368750
-0.722562373 -1.205316663 -0.420501232
1.392731428 -1.240852833 -0.860105276
1.270416737 -1.149127960 -1.152669787
0.641578019 -2.542651653 -0.351580709
0.287761718 -0.504605353 -0.224776298
-1.150290132 -0.786085784 -0.373330474
-5.492272377 -3.146808147 1.466997981
0.356826246 -5.825839520 1.388083339
1.270185113 -0.927975655 -0.297156990
0.129422262 -0.189356968 -0.330611616
2.014088631 -1.755378366 -0.272978693
-1.737846851 -1.763690591 -0.902069151
-1.061725855 -0.495964259 -2.353158236
-0.633329153 -0.316949487 -3.598058939
-0.055996746 -0.748102486 -1.328583479
2.044732094 -2.516154289 -0.404635459
-0.164264128 -0.035259239 -0.338867545
2.215805769 -1.641601801 -0.314823449
-0.800564051 -0.779088199 -0.344598621
-1.815723300 -0.497951180 -0.609644115
-0.170674458 1.341888189 -0.532158911
0.948583007 2.383108854 -0.173721582
-0.529144168 -1.408580303 -0.895337284
1.718256474 -0.852607071 -0.329116136
0.044611670 0.013705432 -0.336333573
0.186361030 0.482481807 -0.319056243
-0.102202438 -0.417985052 -0.415229201
-3.235807419 -4.218098640 0.991951883
1.958490014 -0.912567616 -0.949636996
-9.091090202 1.542156935 2.493469238
-2.376862288 -1.634324551 -0.080530420
-0.976395488 -0.580608249 -0.322680295
-0.298332363 -1.047563314 -0.758040309
-1.578891516 0.648885727 -4.688947201
0.259714097 -0.398949504 -0.332877040
3.884495735 -0.811591208 1.624927044
0.212871760 -0.424982935 -0.338149548
-2.966291904 1.338294625 0.080795236
-0.252701730 0.229107901 -0.324905217
-0.828304946 -1.325439811 -0.460649759
0.792009890 -0.803806782 -1.165127516
-1.994238138 -0.520446539 -0.951131225
-0.278741062 0.230743214 -0.328655481
-0.275738001 0.225960985 -0.330400527
-2.181146860 -0.666746616 -0.059066605
-1.068642735 0.740036190 -1.450416446
-2.089128733 1.082108617 -1.628180981
0.260226548 -5.709132671 1.339259148
-0.452799231 -7.800391674 1.029888272
-0.615970254 -3.133003950 -0.165067077
1.564405322 -0.820467055 -0.351713717
6.939658165 -3.394683838 0.400534719
5.553790092 0.000661296 1.547976136
5.178081512 -1.451573968 0.171224147
1.955638647 -1.138832331 -0.192015812
3.074833393 -4.223330498 1.742367983
-1.981917262 -3.817660570 1.431193352
5.677399158 -9.205268860 0.979138196
0.275604516 -0.495519817 -0.332296073
-0.152825832 -1.116778851 -0.945811510
0.849381030 -2.516506433 -0.639679730
2.722627640 -2.335127831 0.052056931
7.200563431 -1.585631251 -0.132572651
2.580954075 -0.022680357 -0.769551575
1.455670357 -0.900461137 -0.322294801
0.444130838 -2.237450361 -0.901224256
2.548404694 -2.222087383 0.032995563
6.328336716 3.457975864 -0.411498100
-0.131471023 -1.302869081 -1.050542951
0.683795989 -0.027817383 -0.402939260
-1.510865927 1.318855643 0.259244144
0.866851628 -0.116427183 -0.213770881
2.238537312 1.555068374 -0.847737551
0.241987586 -0.112807013 0.502798259
0.045024939 1.707380533 0.784361780
-0.450369090 1.753145099 -0.623652995
-0.739878893 2.950147152 0.012437325
6.974097252 3.760613918 1.288972735
-0.275054097 0.230729803 -0.330409229
-0.485884845 -1.243449330 -0.811239541
-0.561296999 -0.898795247 -0.981747270
0.262840271 -0.483927190 -0.328349173
3.719059467 0.527968049 -0.310387403
2.604019880 -5.445571899 1.707627654
0.450763226 -2.295449495 -0.702643752
6.944472313 -4.845281601 0.061227057
-0.091327444 0.489594936 -0.518954396
3.297873735 -0.135137066 -0.304099888
-2.020510435 -5.817312717 1.544078827
2.496560574 -1.143796086 1.678797007
0.182106331 0.419300377 -0.521257997
6.430878162 -6.426916122 0.893467724
2.805173874 -1.243278384 -0.974023342
2.292150974 -9.403349876 1.163726449
4.374460220 -11.076821327 1.057661176
2.703555346 0.022490229 -0.267911404
0.125669464 -9.341042519 0.576479256
3.115860462 -0.304985434 -0.284642071
-1.074649096 -0.868546247 -0.373370111
-0.392905265 -0.887641490 -0.937536120
1.030764818 -5.282954216 0.167162463
1.444053888 -1.004910707 -0.357633501
0.251502931 -0.113276981 -0.327388197
0.793331742 -0.121301055 -1.187965512
0.494654894 -0.656367064 -0.315305084
-0.844549000 -0.602325499 -0.828170657
-0.301419914 -1.269986033 -0.349288493
1.603119135 -3.246466160 1.918388486
0.462228090 -3.127637386 0.094621554
1.804639697 -1.587241411 -0.232337013
0.383806109 -0.288821787 -0.234970003
4.249685764 1.080552101 -0.355233431
4.218013287 -1.465284348 1.526685476
-0.588546991 0.838424861 0.093255997
-3.135154009 -1.081069469 1.543344855
