ply
format ascii 1.0
element vertex 1276
property float x
property float y
property float z
end_header
0.575988412 -0.291854322 -0.110624328
0.872144938 0.382245928 -0.339066088
0.373903811 1.026283622 0.417634726
0.399881423 1.228519559 -0.031287845
0.496323854 1.315222502 -0.068752937
1.053018570 0.637593031 0.582404673
0.103526384 0.465126872 0.602618873
-0.043674991 0.905884862 0.047114372
-2.590982199 0.800042152 0.705281675
-0.619296134 -0.352880538 0.980348051
0.861224174 0.299080819 -0.317341417
0.759740889 0.107841372 -0.368437022
0.875174999 -0.113383330 -0.365637004
1.097446442 0.193923011 -0.138849705
-0.828512251 -1.595856905 0.524526477
0.731696665 -3.175177097 0.409195185
-0.052158996 -0.540692866 -0.130419448
-1.081668496 -1.123352766 0.232092857
-0.273557574 -2.882864714 0.394082785
0.068346858 -1.123067021 0.577170968
-0.804283977 0.765993476 -0.115934305
-0.040115342 0.315348327 -0.128667429
1.759773493 0.371037424 -0.201637834
-4.368846416 1.169211864 0.155477256
-1.838191032 -1.688350797 0.528409839
-0.973381758 0.543711782 -0.229621351
-2.653102398 1.005844355 0.338639557
0.229942590 0.978925228 -0.191476643
0.250727206 0.932994008 -0.268959910
0.660875738 0.965270102 -0.296251684
-0.059413407 0.499920994 -0.136114955
-0.422043175 -0.955882668 -0.033212882
-0.076629922 0.348656595 -0.141848311
0.422000229 -0.321495980 -0.118383743
0.625485182 -0.220739052 -0.106843889
5.388269424 -5.546703815 0.511557221
1.111682415 -3.178725958 0.254853606
0.879050970 0.979356766 -0.136036158
1.665927172 0.659455895 -0.319954246
1.890935898 -2.012821198 -0.032303888
1.801743150 -0.883675933 0.533337355
0.682050645 -0.460452944 -0.008086259
0.949662983 0.171848014 -0.190344334
0.978519022 -0.422840118 -0.364392251
-0.084603399 0.299653053 -0.152842551
2.792637825 1.043820858 0.601147652
2.741519690 -1.691823840 0.397945404
2.981666565 2.000869989 0.167993873
-0.632759809 1.205527425 0.437680811
10.958233833 8.429229736 1.618847609
1.149173498 -0.465056658 0.378910899
0.901130617 0.397114098 -0.339635164
1.846161246 0.391227275 -0.227961972
-0.246026143 0.591808438 -0.042656481
0.718525887 -1.175635338 0.027396232
0.021556780 0.293662429 0.169293836
-2.318214893 1.427221537 0.426224411
-1.902162552 0.333472490 0.310901582
0.443332970 1.338397861 -0.173239931
-0.178011894 -0.188336357 -0.423889607
0.072794415 -0.524862826 0.467664629
-0.123060264 0.319038630 -0.145591184
-0.142825037 0.316604823 -0.142822728
0.367717206 -3.740506411 -0.002920016
-0.924556673 -1.561912298 -0.152067289
-35.572799683 -13.081561089 -27.990922928
-0.448206127 -0.081508607 -1.456799865
2.008344889 -1.335083246 0.531908751
0.205876827 1.175490856 -0.203840107
0.708283126 1.484236121 0.671085596
-0.231271431 0.410419464 -0.144142032
0.786676526 0.092819415 0.006472221
-1.179283261 0.742555380 0.017183248
-0.863426447 -0.149891675 -0.037996095
0.954983890 0.610950410 0.573268831
1.545869231 1.604956865 0.354701161
1.889621139 0.494352996 0.224590465
0.676738560 -0.686168671 0.001047495
-0.207236215 1.000134468 -0.014290900
1.051342130 0.386534482 -0.130854443
0.418879718 -0.048356980 -0.362730563
0.925506771 0.327312112 0.661809444
3.851202011 1.660102367 0.651576340
1.510494947 -0.679623365 -0.079163857
0.622788489 -0.225913778 -0.108464874
0.289411962 -0.669869483 0.562786281
0.615934849 1.097506642 -0.343901664
-0.080193445 0.214814514 -0.144846871
1.160538554 0.061243095 -0.171811953
0.817165256 -0.230601594 0.638222039
0.990883172 0.555288315 -0.118113600
-0.428029805 -0.182218865 -0.387780368
-0.388299555 1.222426057 -0.184914440
-0.141204581 1.129098773 -0.143572345
2.113784313 -1.657922149 0.632191896
2.614680052 -1.613428473 0.383274078
0.342752069 -1.659711123 0.085627571
-0.266075611 -0.822405100 -0.076642692
1.267044425 0.402403712 -0.039626554
0.042391360 0.159718484 -0.086116605
1.040659308 0.763010263 0.543491900
3.228074789 -0.470357895 -0.064734526
0.467924654 -0.217146873 -0.182605922
0.854578257 0.309066862 -0.314223498
0.828036487 -0.118665777 0.622762561
-0.172949716 -0.479529709 -0.437019438
-0.427998304 -2.659951687 0.471328855
0.743579268 -2.149793625 0.579623640
2.492305279 1.731283307 -0.199301660
-1.791567802 2.069637299 0.528615355
-1.555835485 1.655099630 0.847333729
0.014413371 0.097589366 -0.111293018
-0.197528929 -1.222206116 0.688186169
0.498681039 -1.963034749 -0.009069146
1.149843574 0.521866441 -0.120806843
1.140259743 -0.130947709 -0.033146530
0.156281680 -0.236961767 0.027953520
-0.026244206 0.273976028 -0.144044831
2.518704176 -0.260664970 -0.091982149
-0.187882021 0.398291677 -0.456000954
1.363735676 0.010961207 0.605296075
0.946721971 -1.170976162 0.596991897
2.167238474 -1.857353568 0.491004229
2.715700865 -2.480779648 0.366193444
-0.224963218 1.074660659 -0.191505343
0.909277141 -0.574498832 -0.008680394
0.033283904 0.202552930 -0.105885185
-0.063250490 0.347855240 -0.141552657
0.653416336 0.118315071 -0.455687344
-0.254001915 0.555712640 0.019500479
2.778084040 -1.763488889 0.421866983
2.330909967 -2.226155043 0.420052856
1.409765720 -3.618133783 0.358528137
3.574167252 1.751441360 0.180834100
-0.452243924 0.010295908 -0.392763376
-0.447710574 0.003665353 -0.155658528
0.042252805 -0.531344175 -0.371320099
0.036206048 -0.518370211 -0.356098831
-0.052513871 0.260677427 -0.145090163
1.380869269 0.024300355 0.521095455
-0.161927089 -0.259806216 -0.479147136
1.689966917 -3.666028500 -0.033732694
1.680448651 1.349371433 -0.231571451
-0.342548907 -0.494202584 -0.231203154
0.212207630 -0.463538706 -0.183463201
0.015941201 0.198464677 -0.103041224
-1.533489704 0.104288869 -0.019954970
-1.259756088 2.421313524 -0.177813396
-1.143711925 0.335670799 0.765070260
-0.306499034 1.116015673 -0.303916365
0.673329353 0.691822052 0.657176852
-0.078086331 0.799358308 0.043684695
-0.049220879 0.141785145 -0.148443669
-0.452802926 0.636505902 -0.229121536
-0.652189374 0.685730577 -0.362792134
-0.073157012 1.156743765 0.063942581
-0.760689259 0.630695760 -0.196228594
-0.037213646 0.446539313 -0.183063760
0.533767402 0.886429548 -0.279137701
-0.028845232 0.328442484 -0.139814690
-0.102067895 0.242415890 -0.145409971
-1.013481736 2.054922104 0.717476666
0.034708779 0.055385631 -0.158779979
-0.083108746 0.175194174 -0.148570120
-0.031889975 0.098500393 -0.139368922
-0.005212891 -0.004497144 -0.150640219
0.023446627 0.071089238 -0.154382244
-0.218359351 0.395264179 -0.141510606
-1.118652105 0.866042674 0.018805809
-0.917943478 -0.210421726 -0.039725780
-0.032242570 0.275810748 -0.144238159
0.380196482 -0.501338124 0.622095406
0.227757886 1.121535897 -0.074069917
-0.287388146 0.122081123 -0.376313746
0.146359116 1.154664993 -0.007985091
0.430616945 1.173842072 -0.061430842
-0.001185014 0.070691258 -0.132384479
-0.159204304 0.337600142 -0.145704374
0.546706617 1.366512775 0.077670619
4.707038403 2.229410887 0.118285485
0.686471283 0.804474711 0.660085499
-0.106415048 0.235754475 -0.145527467
0.012711505 0.204988599 -0.102819078
-0.276835918 0.692795694 0.760490239
-1.018649340 0.106741607 -0.268655598
2.370592356 -3.699472427 0.113027908
0.825095773 0.699351370 0.549153209
0.199915662 -0.165753633 -0.659356475
0.223670945 -0.191777542 -0.708894134
3.845150232 1.641819000 0.405107886
-0.588209927 -0.185916767 -0.305468082
0.606002808 -0.682832062 -0.018017225
1.751168013 -0.725612700 0.557992041
27.381914139 -23.410482407 -30.798357010
0.165102467 0.717652440 -0.131735504
0.119013011 -0.096867859 -0.162726030
0.097300306 -0.312849611 0.728729606
3.216732025 1.504295945 0.529511034
-0.204013586 0.348119020 -0.180385277
1.845329165 1.627972126 0.513126731
0.979141355 0.735297322 0.550226390
0.923134685 0.291965693 -0.098989375
-0.068648994 1.162281632 -0.076067649
2.881904125 2.188990593 0.893188298
-0.918560266 -1.942579985 0.581980944
-0.851901650 0.113200590 -0.265929848
-2.011109114 0.856999040 0.083346047
4.070360184 1.959461927 0.136433735
0.003542259 0.055369783 -0.150895834
0.262351930 2.857192278 0.776580453
0.002076794 0.066467091 -0.130800024
-0.585899591 0.706918538 -0.355354279
3.077718496 2.169472218 0.601426244
2.539450645 0.815160751 0.543310821
-0.039598737 0.157336965 -0.099627540
0.834441066 0.402249813 -0.320904881
1.279651165 -2.042273521 0.054726053
0.468435735 -1.016996980 0.002097047
-0.578058004 0.307479680 -0.311313510
-0.451957196 -0.103773423 -0.141549677
1.125466943 0.553224802 0.549246848
-0.034718733 0.273377210 -0.147234663
0.371755302 -0.019272119 -0.143087596
0.158907473 0.074556068 -0.488701522
-0.104641117 0.238397256 -0.143990457
-0.029984875 0.093297161 -0.135548323
-1.514319181 0.651361883 0.018683212
-0.433125883 0.831644893 0.061344329
0.262699991 0.940232098 -0.323794961
0.877361357 -0.113376439 -0.117516756
1.028478026 0.756237805 0.558533370
0.887062609 0.580575824 -0.361897677
2.671019316 1.821327329 -0.352379829
0.406140983 -0.900298834 -0.018364396
-1.044564605 2.030045986 0.725673139
0.185806096 0.911582053 -0.341445386
2.339419603 -0.104575478 0.182501704
-0.019955752 0.068825655 -0.129526451
-1.626951337 -1.668577671 0.353403032
0.339181185 0.816265166 -0.157813132
1.220188856 -0.033953004 -0.130242839
0.866710901 0.312561154 -0.276464194
-0.477446884 1.572967768 0.472197860
0.903199315 0.458524704 -0.368566275
-0.288743585 -0.842890322 0.013344296
-0.119267367 0.280905396 -0.155608028
2.565599918 1.195042253 -0.160933286
-0.227225915 -0.207397491 -0.391891003
-0.264319301 0.108093433 -0.349057257
0.358854830 0.061336674 0.017212158
0.216541007 0.893792152 -0.153564945
-0.380288094 0.740497768 -0.041339517
-0.030640457 0.328877240 -0.139101326
0.479961753 0.021292519 -0.173848569
0.717575848 1.303647876 0.007576957
-0.414609402 0.367394835 -0.045492966
-0.228536814 1.586413026 -0.201065511
1.456401110 1.377737403 -0.262244761
-0.006057758 0.132709906 -0.108824745
-0.991981626 0.263799071 0.682183623
-0.457023531 0.233317792 -0.607611179
-0.626644135 0.708803058 -0.088423550
-0.659589827 4.138014317 0.767236710
-0.031105516 0.096175477 -0.143432960
-0.023288099 0.176797971 -0.106557868
-1.325707078 1.187690973 -0.172736406
0.894500732 0.471826524 0.125076532
0.353538305 1.363207698 0.067328967
0.088346988 -0.527845025 -0.128114536
-0.649286747 -1.795872927 -0.093360171
0.099513590 -0.093366563 -0.210314989
-3.955119848 2.346750736 0.956598461
0.205336362 0.965366900 -0.269896448
-0.173723921 2.747103453 0.550401509
2.561568975 -2.092451096 0.426330924
-0.667171240 0.652620792 -0.077399567
0.000111574 0.138255239 -0.101817869
1.421197295 -0.148824960 -0.125535920
1.811561108 -1.173932433 0.485985935
3.293775082 -1.305379033 0.166641489
-0.321383566 1.265720606 -0.341493756
-0.693221569 0.729232073 -0.101163909
-0.604951382 3.881324291 0.516117036
0.278565586 2.076658726 0.061703008
0.005932557 0.065104723 -0.148390263
0.074151419 0.537039995 0.681715190
0.772060871 1.817532063 -0.084360398
-0.032256931 0.097873166 -0.142335609
0.079424344 0.580299020 0.728639662
4.086495399 2.098639727 -0.530646384
0.276371896 0.010640855 -0.434537560
-0.678090990 0.718033493 -0.186591372
-1.074273825 0.291510701 -0.248687431
-3.266670704 -0.605132341 -0.501981139
0.684189856 0.342327505 0.087381043
1.291927814 -0.066696987 -0.031829182
-0.059439551 1.072277308 -0.063892208
0.744055867 0.553697050 0.482603997
-0.032605249 1.009654403 -0.300593883
-0.367720902 0.724369824 -0.197638631
0.012709145 0.135162190 -0.153724417
-0.003753749 0.025073387 -0.202218637
0.399581939 1.456675768 0.074121751
2.082672596 0.264504105 0.021332385
-1.490081072 1.601068497 0.813895583
-0.039264541 0.298290282 -0.142337769
0.021204388 0.150665939 -0.119875155
-0.447753608 0.844972670 -0.104015164
0.041442197 -3.032909155 0.195338815
2.924024820 -3.380662680 0.228676945
2.233739614 1.621447563 0.831878901
2.200693846 1.032319665 0.283233941
1.914783597 0.488693744 0.245133787
-0.058537867 0.503055394 -0.138071105
1.193117261 0.660233676 -0.148964137
0.835392058 1.185788035 0.625702262
0.220334023 0.647964716 -0.235665753
0.153453737 1.196142316 -0.012683787
0.175215974 0.800587356 -0.155492350
-0.457458556 -0.053943403 -0.239353359
-0.465844542 0.068299189 -0.244874001
1.362423301 0.140906125 0.599123180
-0.102685608 -0.698081374 0.054835673
0.478373975 -0.243597627 -0.189539731
0.541412652 0.876738548 0.453364760
-0.079274356 1.400959492 0.046515029
-2.229271650 1.336680770 0.638444960
2.731809855 1.295828104 0.907480121
1.042959094 2.440546989 -0.109943442
2.391963243 0.722464144 0.083509147
-1.586886644 1.693739772 0.854712248
-0.441043228 0.623671353 -0.091948479
-12.628987312 2.943788052 0.350829154
-0.326225609 0.745466709 -0.082743108
0.670588195 0.900977492 -0.236325115
-2.085161448 2.053822041 -0.106736198
-0.013612202 -0.024908673 -0.039601050
-0.343766540 0.078605250 -0.371785939
-0.021415308 0.089977376 -0.151076987
0.144905314 0.918946028 -0.221614718
-0.488976628 0.638751328 0.005342880
-0.696888864 0.756096244 -0.016209830
-0.024684625 0.274567515 -0.142155111
-0.011271550 -0.009571515 -0.155819178
-1.086392403 0.672701895 -0.081706055
-0.798813105 5.704993248 1.065513372
1.940136194 1.792116165 0.551086605
2.837841988 2.049536467 0.567297935
-0.834194779 0.578879118 -0.345498681
-0.065260984 0.349603653 -0.142001316
2.383924961 -0.366170079 0.072290160
0.207856670 -0.507669687 -0.281951994
1.831278205 1.699587345 0.517898142
-0.140675828 0.320928782 -0.146675602
1.084763288 0.666039109 0.603008151
6.889966011 3.474469662 0.209776968
-0.026300630 0.097050808 -0.145820990
-0.419225484 0.753984392 -0.186724097
-0.042941626 0.263593316 -0.139851823
0.285146236 1.423522353 0.076132402
-0.861220658 0.106934436 -0.022786615
-0.032905683 0.181204736 -0.114944287
0.213428915 -0.569019675 -0.336320102
0.253702730 1.025551796 -0.184757739
1.035983324 0.753055036 0.543430090
8.289065361 7.343794823 0.508686543
1.969124317 0.584862590 0.316371202
-0.054479267 0.253285110 -0.138307929
1.675984025 1.424040556 0.040723879
1.741008401 1.351207972 0.108505309
0.215409890 -0.675497830 -0.273440957
-0.029316803 0.327379555 -0.139727697
0.634825051 0.046158630 -0.158974737
-0.195589975 0.498329937 0.004662372
-0.532567382 0.997284949 0.010939624
-0.946950376 0.593207300 -0.066554613
-0.494661152 1.074571371 -0.099363096
-2.038964987 7.245725155 0.381268054
-0.263455331 -0.097319402 -0.210569173
-1.224999309 0.769355774 0.018478831
-0.512024403 -0.005063168 -0.151969194
-0.029118422 0.169983521 -0.145829096
0.859296501 0.079811238 -0.130694792
0.018343223 0.143067196 -0.886704981
-0.156286150 0.756813347 0.031331111
-0.146578833 0.115046889 0.127584621
0.682499647 -0.281388640 -0.133100018
1.711496234 -0.982118845 0.497131914
-0.397727519 0.607735038 -0.045932040
-0.821987569 -1.465931177 0.007406824
0.154987827 0.099220850 -0.142574772
-1.009586215 -1.193669081 0.252325892
-1.343832850 -1.271850348 0.300168902
-0.112331010 -0.433956534 -0.343788236
0.009740880 -0.452312529 -0.370066375
-0.434148788 0.016628511 -0.150809854
-0.718319952 0.104347341 -0.184874073
-0.741193175 -2.089415789 0.184519142
-0.008793847 0.316645890 -0.660276592
-0.360779434 -9.489227295 -3.443044662
-0.298702031 -0.707630277 -0.065605223
-0.391573429 -0.029879451 -0.363816261
2.758360624 -3.867430449 0.399744332
0.280413538 1.407142401 0.076196298
-0.879441679 -1.642017961 0.161570385
-0.370214820 -0.003456616 -0.204523191
-0.882008851 0.097313091 -0.025349326
0.166960776 -0.574663103 -0.249360636
0.270351529 -0.534025311 -0.115784183
0.207466006 1.179314137 -0.205182105
-1.753828168 -0.198708475 0.132487193
-1.821016550 0.179894492 -0.222053170
-0.898810148 0.123330355 -0.385180414
-1.334776998 0.307172954 -0.012281750
-1.665469646 0.264472663 -0.073155984
-0.442765981 -0.790640831 -0.261641800
-0.049604211 0.133797079 -0.146976814
-0.061902191 0.527109981 -0.080745995
-2.148691416 -1.953188300 0.458751649
0.375615507 -0.451835990 -0.161755219
-1.472823024 0.243885815 -0.421787053
-1.312408090 -0.150863975 -0.084242769
-0.744177401 -1.220302820 -0.347804189
-0.969846249 0.543722987 -0.201001897
1.503739357 1.243608832 -0.465679944
1.536993384 -0.947597265 1.005595922
-0.369707018 0.723020494 -0.192984849
0.265827775 1.045657635 -0.204964355
-0.134366229 0.915153086 -0.093504302
-0.099283330 -0.686235249 -0.149345413
-1.761347413 -0.199314296 0.134230152
-0.322248012 -0.314675122 -0.156114891
-0.067635693 0.253005564 -0.142134696
0.489160359 0.002001859 -0.156279072
0.860952079 0.231811300 -0.340902150
1.654124856 1.414045334 -0.297051817
-0.828783095 1.774856687 -0.243351981
0.646510482 -0.018942552 -0.555437207
-0.080734968 -0.855527282 -0.121241830
-0.827007294 -0.238686889 0.056974046
-0.141394660 0.228671670 -0.145579621
-0.369344234 -0.032800283 -0.296537489
-0.137661964 -2.681195021 1.172472358
-0.067238607 0.347224355 -0.143548250
-1.261146069 2.391322136 0.847213030
-0.049074788 0.158558741 -0.142737910
-0.111244202 0.329657972 -0.139712870
-0.029006187 0.324577332 -0.136792392
0.272318780 -1.061840653 -0.041050058
0.028581366 -3.311609745 0.456373900
-1.095759392 0.063668840 -0.465977818
-0.295818925 -0.547678113 -0.262861729
0.016559353 0.134173676 -0.108543910
0.267550796 0.959416211 -0.152288541
-0.277877808 0.118583933 -0.363190979
-0.835880280 -0.151835144 -0.020889392
-0.798521757 -0.186004356 0.796413302
-0.911022902 -0.253157705 0.602683246
-0.313038111 -0.028418479 -0.215682372
-0.091228046 0.075157739 -0.269771606
-0.222499490 0.390895128 -0.139051378
1.289655685 0.272907823 0.598484576
0.631295443 1.314286351 0.533203721
-0.114026532 1.418147326 0.058757633
0.511510372 0.687782466 -0.186036557
-0.631374240 0.572703600 0.241984963
-0.542791069 0.623806119 -0.372451007
-0.376037925 0.062487841 -0.379688591
-0.187437057 0.640655041 0.382738441
-0.050773546 1.229340792 -0.042644523
-0.625168860 0.997032404 0.093534477
-0.889795125 0.613601029 -0.233211502
-1.303323388 -0.422664911 0.569723666
0.140393436 0.104787305 -0.394087434
-0.230404943 0.007684172 -0.166745588
-1.827235699 0.039561383 0.089962199
-1.570989490 0.525005460 0.216725573
-0.234099835 0.182198122 0.522126079
0.007664236 0.003413462 -0.117695466
-0.844017982 1.955816269 0.616860747
0.040164597 0.067369021 -0.140803277
-0.584010541 0.792047203 0.008769433
-1.097089887 -1.337507725 0.220382974
-0.252569050 1.103066444 -0.199467152
0.162541449 1.130403399 0.022471199
0.154630303 0.434489459 -0.119588345
0.043370362 0.187125683 -0.086806267
0.014194773 0.343896627 -0.583264351
-3.632459879 0.045379311 0.713460803
-2.846714735 3.173971653 0.857309818
-0.329031050 0.033868719 -1.872467637
-3.255878448 2.736560106 0.687397540
0.301488996 0.311960965 -0.195282891
-0.880916238 3.520350933 0.587429523
0.163172364 0.090428449 -0.144114956
-0.277732641 -0.026867816 -0.390233040
-1.009843946 0.557531536 -0.254944801
-0.073259987 -0.021896562 -0.207512766
1.227308393 -0.778922498 0.341844857
-0.339869618 1.462104678 0.431836277
-1.000313878 1.105207920 0.100918293
-0.047196805 2.676600695 0.636410177
0.256558836 0.444994628 -0.251085073
-0.835646927 0.557241619 -0.152001053
-0.313604593 -0.315400809 -0.136341467
-0.528010488 0.180391714 -0.017527143
-0.784674644 -0.120816879 0.747105479
-0.157650024 5.338277817 0.814590037
-17.902112961 -1.131264329 5.158064842
0.156461954 0.816701233 -0.370746434
1.888008475 0.559578717 0.089309521
1.611228943 1.505029202 -0.279820114
-0.509405077 0.024642566 -0.173727870
0.181521550 0.850172639 -0.321688563
-0.439860821 -0.023893047 -0.127517238
-0.802836835 0.266123563 -1.373034239
-2.573865652 3.234406710 0.653767824
0.175646514 0.143628031 -0.284521848
-0.109037675 0.467137843 -0.355246067
0.062393766 -0.055696901 -0.050825361
-0.661217391 0.186577275 -0.551666141
-0.557256520 0.141607314 -0.462377906
-1.085316062 0.789750755 0.005119153
0.846085131 2.105684042 0.117666103
-0.712924778 0.218389481 -1.208884358
1.089677453 1.695259690 -0.004542847
4.804430485 3.035718441 0.105836011
-0.266598910 1.129551888 -0.119107515
-2.088320494 5.454542637 0.759156287
1.848893285 0.845790267 0.248957545
1.246007204 0.246301442 0.567950189
-0.342100829 0.612865150 -0.074509293
-0.470094681 2.931009054 0.396447390
0.501095772 -0.026898790 0.075856000
-0.096138842 -0.553225577 -0.293756247
1.120642543 0.048821356 -0.066653378
-1.647041321 -0.761656165 -0.712748587
0.291872084 0.876285374 -0.130808040
0.453715503 0.244047403 -0.379035622
-0.074926980 0.222632185 -0.147063226
-0.185676962 1.050657153 -0.002748462
0.055528514 0.054443531 -0.146030515
-1.990625024 2.240567446 0.575782657
-0.990356863 0.262224555 0.696485460
-0.457244456 -0.110044718 -0.142076060
-0.338925511 0.076027319 -0.364481479
0.649765790 1.177558541 -0.089607328
-0.028883109 0.176212177 -0.105020314
-0.003507081 -1.100596070 0.568386376
-3.848909378 3.797678232 0.676504672
-0.290281057 0.124035671 -0.377778828
-0.448534787 1.080811262 -0.121351063
-0.412107795 0.661696672 -0.381445676
1.114117742 0.686985433 0.617228150
-4.233183384 5.263039112 1.843727350
-0.880922258 0.006410225 -0.233938307
-0.136658743 0.443003148 -0.352833837
0.466706038 0.079161219 -0.238647670
-0.582580388 3.976501703 1.102829099
0.452197313 0.243923753 -0.373911858
-0.399393201 1.433754086 -0.136226326
-0.469460905 -0.106661879 -0.147763982
-4.065379620 0.017394120 0.778696597
-0.204127491 -1.010291934 -0.013758657
0.091865227 0.323891908 -0.146578521
0.158138052 0.091343626 -0.144471616
-0.114419244 -0.588786781 -0.139915183
-0.392335474 0.039214052 -1.123878360
-0.007556323 0.004491819 -0.151851162
-0.317212433 -0.185238674 -0.344477952
-0.396009773 -0.041636504 -0.372611970
0.414102018 -1.685032368 -0.011138198
3.086394072 -6.227322102 0.824447513
1.508816838 -0.350758106 0.552197814
-0.480907530 0.124357469 -0.490657985
1.204684854 -0.143891379 -0.260551274
-0.307212323 -0.081203051 -0.296726674
-3.739018679 -2.470174789 0.544156075
-0.809871852 -0.151030883 0.764813662
0.542787671 1.000990152 -0.196748197
0.160123169 1.225987792 0.088936098
-0.809419215 0.833303630 -0.233976379
-0.081577055 0.177843839 -0.149958104
-0.029324939 0.276810706 -0.144789428
0.131444454 0.089788057 -0.359748542
0.594280362 0.075885504 -0.074550577
-0.518332899 0.088568047 -0.016341265
-0.363217115 0.656033337 0.017331539
-0.929970384 0.570342481 -0.090974107
3.119210005 2.254637480 1.172570109
-0.576536715 0.248896018 -0.075238407
-0.812841117 0.568743050 -0.032195438
-0.000869738 0.307230473 0.184065491
-0.099408410 -0.522817910 -0.375508785
0.796597302 -0.722999752 -0.360683322
0.228876129 0.814189017 -0.045975186
-0.436498731 0.609069884 -0.111628376
1.157846451 0.509176373 0.014909273
0.932525694 -0.165279582 -0.124216393
1.420678854 -0.072213814 -0.023304187
-0.017272400 0.133307576 -0.146320239
2.344914675 -23.129570007 -3.832992554
0.040311120 2.103777170 0.209034055
-0.486740023 2.429369211 0.075462006
-0.066196866 1.123811364 -0.398390234
-2.748044491 0.096882060 0.531111956
0.187726438 2.263960123 0.609441102
-0.383549631 0.825834334 -0.256957442
0.418153107 1.494204402 0.532299340
-0.008084945 0.345842570 -0.112100065
-0.001263657 0.059003137 -0.130131483
-0.998516202 0.369567513 -0.388626754
-0.822680652 0.552065372 -0.110476896
-0.047290951 0.161465555 -0.147380739
-0.047388874 0.158693343 -0.146639436
2.889098406 1.091576576 0.623635590
-0.047019593 0.158706829 -0.146528319
3.146975279 1.893767953 -0.418954074
0.592173338 -0.515336990 -0.271112174
-0.040026709 0.090853997 -0.144632936
1.083935976 0.134843051 -0.294784904
-0.060266696 0.231691569 -0.142419532
-1.745181680 0.250904858 -0.065433107
-0.081473365 0.743512571 -0.060482781
0.179315090 0.672093987 -0.525083601
-0.472744435 -0.173272222 -0.198935688
-0.176193610 -0.040212244 -0.253596485
-0.205580667 -1.208289623 0.012752587
0.337590754 -0.091288671 -0.344796121
-1.243523836 -1.527960777 -0.106820054
0.695192456 -0.046948202 -0.196959347
-0.685611248 -0.096113414 -0.023459475
4.131558418 -6.931035519 -11.503804207
-1.321029067 -1.524471164 0.222783193
0.396977633 0.075737499 -0.356171668
-0.541060150 0.044702519 -0.151767567
-1.071725249 -0.824101329 1.558956265
-3.103805542 -0.718618155 0.621958971
-1.005549908 0.468173891 -0.111488633
-0.646158516 0.794051588 0.015665976
-0.065787047 0.349631816 -0.141491652
0.768866777 -0.006927535 -0.184415698
1.583661318 -0.354181856 0.578346491
1.196876645 -0.093156464 0.502512217
0.717654884 -0.717094004 -0.002711577
0.164452404 0.076263584 -0.156687632
-1.426728487 -1.864680409 -0.155442730
-0.576589227 0.016130658 -0.246290684
-1.452603579 0.170935497 -0.355774611
-0.769847035 0.637458682 -0.369338065
-1.694538236 0.689466953 0.484470606
-1.130479813 0.377112687 0.014445390
-1.920494914 -2.071261406 0.249293387
-1.106428385 -0.162551820 -0.154290840
-0.618879259 0.136163771 -0.155621678
-0.845690489 -0.144192711 -0.026985869
-2.149734259 0.667844951 0.412562698
0.271058530 -0.489709496 -0.334663212
0.015637107 0.201024026 -0.147266716
-0.515630484 0.707434833 -0.065517366
-0.841071248 0.227378607 -0.245286301
-1.145011067 0.792130411 0.014271344
-0.567325592 1.598875999 0.356127560
0.868177474 -0.150655508 0.647178054
-2.525478363 -0.344969988 -0.381187141
-0.585666180 -0.048768301 -0.450847328
-0.341439515 0.079518728 -0.370541096
0.752255559 -0.559760809 -0.062653892
0.785871625 -1.474559069 0.968895018
0.559858799 -1.098457575 0.740069151
0.496497899 -0.242276832 -0.194225818
-0.033147074 0.275681406 -0.145706147
-0.032995824 1.067711234 -0.189129755
-0.568271518 0.124889180 -0.494589031
1.008864164 -0.282526344 -0.133447409
0.579024613 1.373875737 0.594510376
0.057876695 0.063227616 -0.150383040
2.142953396 0.266625941 0.036448490
-0.692629158 0.034768008 -0.394707590
-0.497808397 -0.090635583 -0.233024046
-3.973809481 -0.582631230 0.747148693
0.013393555 0.198584393 -0.091749914
0.834838867 0.393948615 -0.106920667
-0.022200959 0.405025363 -1.269543171
-0.035165470 -0.669057429 -0.152515531
0.920990169 0.221147448 -0.115785770
0.464072615 -0.447079986 -0.188938782
-3.922101498 3.692729235 0.648019493
-2.280363321 -0.353517562 0.313750088
-1.805473804 0.040503804 0.086721890
-0.981399059 0.456339777 -0.123646140
0.017721431 0.203398675 -0.144756690
-0.366860569 -0.305126697 -0.150809810
-1.122168660 0.318160772 -0.182175756
-0.002558101 0.130454674 -0.109560236
-1.263109446 -0.078044295 0.554691195
-1.029312491 1.496853232 -0.001741842
-0.771791995 0.156303182 -0.399175674
-0.345397770 -0.694980383 -0.426000655
-0.497444659 0.032358587 -0.382850826
-0.031228872 0.305618465 -0.131738335
0.043882512 0.058129903 -0.161376834
-0.411362112 0.275309473 0.712565005
-2.094128132 1.482683301 1.027035952
-0.947397411 -2.050481796 0.319496393
-1.979342937 0.323356509 0.598912001
-2.155552387 -1.489263296 0.168720707
-0.270268708 0.187740549 0.554511130
-1.091273069 -0.528213203 -0.609215319
-1.092247128 2.055521965 0.008384401
-1.110658646 -0.562482774 -0.629434228
-1.280640006 -1.181769729 -0.088092260
0.002744018 0.131977320 -0.104912706
-0.390322179 0.629964828 0.775673211
-0.473381191 0.897203207 0.011483668
-0.953127384 0.139454439 -0.264794618
-1.778050900 0.042208474 0.072667308
-0.344635218 0.600969017 0.728910148
-0.310343117 -0.610149920 -0.323032200
0.146070987 -0.513907075 0.475623637
0.449881136 -0.023830330 -0.273837507
-0.053738467 0.260037810 -0.104734160
-0.179129034 1.285144091 -0.098062292
0.148000717 0.124039441 -0.155769691
-0.286615282 0.709889889 0.763076484
-3.133154869 -0.234874681 0.560871959
-1.432588100 -0.446179628 -0.044844285
-2.054016352 -1.236249924 0.398427218
0.570612609 1.032914162 -0.293120742
-2.273922205 -0.906280518 0.531976879
-0.327367276 -0.118276745 -0.188779190
-0.037821036 0.470407695 -0.181008086
0.064591981 0.047547963 -0.098646574
-1.061162353 0.121841490 -0.272841722
-0.012738945 0.222506881 0.155461729
-0.021970585 0.162327752 -0.117205612
-0.012159745 0.399031579 0.237824008
0.020286387 0.071627669 0.064399697
-0.219627246 -0.029563902 0.007440044
0.824748516 0.716455936 0.562104523
-0.125229374 0.255622000 0.186109677
0.005291023 0.058893781 -0.146494791
-0.152637944 0.112767294 0.126463160
0.022022476 0.133363575 0.093292333
-0.497785300 1.684491038 0.606166363
-0.048886649 0.053616457 0.044291701
0.413630247 0.079162143 -0.151023656
-0.383630127 2.024502993 0.577286839
0.036423299 0.619625926 -0.200688854
-0.691266835 0.634422302 -0.044552516
0.051090185 -0.404156148 0.393911898
-0.577030957 1.044923544 -0.184019998
-0.527038276 -0.014954652 -0.233443305
-0.794208944 -0.175261140 0.539612532
-0.770633638 0.072766416 -0.313435316
-0.554587603 -0.683549285 0.690500200
-0.083230689 0.178968430 -0.151893348
1.825531721 0.474938780 0.239657119
1.575572610 1.365421653 -0.278652459
0.686902702 -0.843964577 -0.002153456
0.155399472 1.210113525 0.088387094
-0.186375484 1.093575478 -0.006147525
-0.030277563 0.952301204 -0.262030810
0.874425709 0.574331582 -0.351221412
-0.202124789 0.401515514 -0.379649550
-0.488211751 0.657667756 0.012585367
0.436068982 0.033658620 -0.350787699
0.415219218 -0.120741174 -0.170718297
-0.104870267 1.126266718 0.047370788
-0.122330092 0.323964477 -0.144667104
0.030992851 1.155876040 -0.039934978
-0.048885934 0.142001167 -0.148990974
-0.052862640 0.690195978 0.540959954
-0.048789807 0.142068982 -0.148721859
0.028049788 -0.010547098 -0.154125452
-0.024287069 0.163295373 -0.140627712
0.046395563 0.094169416 -0.169141516
0.278511077 0.156924203 -0.111885585
-0.092776202 -0.002468408 -0.170429587
-0.178897887 0.001047889 -0.246094808
-0.494606882 1.585326433 -0.236020610
-0.528135955 0.753913164 -0.134464875
-0.878280461 1.425614357 0.702167869
-0.487637937 1.623625994 0.686041772
0.285861492 1.351576447 -0.082041778
0.044321012 0.167647362 -0.100511312
2.319979429 1.748453736 -0.159473479
0.447912216 0.015815563 -0.153592333
-0.002134873 0.136913210 -0.147463441
0.043304376 0.054894306 -0.135781124
-0.009712250 -0.001406409 -0.147961482
0.368457466 0.010440667 -0.354190171
-0.105379239 0.237967998 -0.145374134
1.344661832 -0.197371915 0.525381148
2.650480032 -1.623483658 0.370487839
4.045258999 1.516246915 0.194469526
1.015872598 0.652210772 -0.173476413
0.845435858 -0.120461449 0.632282019
1.898123264 0.425452262 -0.041481026
0.533774376 -0.281875789 -0.204264030
0.879303277 -0.590746760 0.800818443
0.293219626 2.086220980 0.617916942
0.053812865 0.061411411 -0.144109190
0.336235702 -0.085542083 -0.350912303
0.057005059 0.062512010 -0.148009107
-0.199849918 0.396341801 -0.377808362
-0.124041155 0.319462866 -0.142981485
0.341342777 1.178786993 0.519805908
-1.021156311 0.657047451 -0.077882074
-0.439499229 0.899001598 -0.078399904
-0.484978020 -0.241447523 -0.274795741
-0.471964478 -0.113689959 -0.051775221
-0.031402599 0.313139439 -0.134268105
0.332300514 -0.047624249 -0.254534096
-0.486997962 -0.111550599 -0.052638207
-0.241888821 0.492734492 -0.287577987
0.966319561 0.613893688 -0.164013177
-0.032249168 0.333329707 -0.142366439
-0.342680126 -0.158135489 -0.152572781
-0.378251374 -0.168561473 -0.170206517
-0.432626367 -0.018257271 -0.462184757
-0.314877152 -0.114573777 -0.337158263
-0.365839958 -0.028143322 -0.371824682
1.030823350 -0.047887988 -0.090361886
-0.032730673 0.362285793 -0.149357215
-0.162429482 -0.004937742 -0.224377826
0.354220957 -0.040506512 0.001448491
0.224780560 0.069806837 -0.290368408
0.051196590 0.289602369 0.405429870
-0.312920690 -0.077564038 -0.069844738
-0.528241992 0.109121576 -0.096002944
-0.478498369 -0.117395960 -0.059192084
-0.521842957 0.109495290 -0.097172037
0.520092070 -0.023707338 0.076318540
-0.195464849 0.368256807 -0.283765674
-0.040813878 0.853809059 0.665901601
1.194988608 0.282449335 -0.356304973
0.146379098 1.340850472 -0.199727878
0.045590319 0.168609828 -0.102069266
0.530441463 -0.032009296 0.075256012
0.567439198 -0.185464606 -0.377778620
0.227874875 0.907986581 -0.305881709
0.270338088 1.150730848 -0.035477437
1.367963433 -0.188400015 0.536183298
0.755937099 0.830650151 -0.270796895
0.101932056 -0.035543948 -0.435647786
0.338492274 0.956289589 -0.052551396
1.267633557 0.108734302 -0.044321321
0.688829839 -0.369689286 -0.139665619
-0.024131004 0.745578349 -0.199883625
-0.012124027 0.394625723 -1.178820968
0.489102811 -1.114104509 0.744998336
1.285408854 0.661585510 0.328662574
0.438548684 -0.482217640 0.537469983
1.115089893 0.144365638 -0.176137522
0.959824085 0.248185560 -0.117437638
0.846811593 1.183009505 0.633786678
-0.041220054 1.001117706 -0.337189794
-0.369015068 0.722357810 -0.202576950
-0.744172573 0.636204183 -0.097118169
0.057966918 0.201613978 -0.123067647
-0.018526750 0.120418228 -0.137285113
-0.187845349 0.309586972 -0.247519165
-0.146906316 0.282470137 -0.151432261
0.744505227 -0.135243446 0.617033362
1.090374827 0.132059872 -0.280847728
1.142378688 0.292584360 -0.309907675
1.738366365 -1.057996154 0.483403027
0.032354560 0.421442807 -1.403910518
0.123585649 -0.248028994 -1.449753523
-0.132442757 0.287114739 -0.141986132
-0.016171206 0.005513011 -0.142228261
-0.015141002 0.003544358 -0.143517956
0.392280996 1.200938463 -0.042855803
-0.029892128 0.555818796 -0.162858576
0.123130970 0.844951212 0.277938783
0.161822066 0.903807461 0.307030290
-0.078793034 0.336014688 -0.141655549
-0.080000676 0.248335332 -0.143625706
-0.113632120 0.249185935 -0.144118741
1.016845345 0.755351365 0.543628335
0.183463454 -0.219238192 0.712151110
1.444289207 -0.029671991 -0.128949717
0.331601441 -0.020336390 -0.249311656
0.562348485 -3.239080191 0.573146880
-0.136883497 0.312021285 -0.144533977
1.052789450 0.719657898 -0.295311779
0.332088947 -1.360691071 0.065062039
1.006895304 -0.024211606 0.629467607
6.907894135 4.234892845 -0.932584286
0.321315438 -0.097549804 -0.139838725
1.208349705 -0.027677266 -0.125233069
-0.068084158 0.349563807 -0.138597444
-0.210132435 -0.147496521 -0.369693458
2.384988785 -0.382703155 0.092397079
1.277392268 0.042721335 -0.233169958
0.480165780 -0.501658022 -0.134586990
0.044915952 -0.014087806 -0.245095566
1.739354134 -1.468856454 -2.664095402
0.222642779 -0.219006404 -0.716943562
0.216366515 -0.839275122 -1.255636096
0.074781537 -0.129711628 -0.213078350
-0.137597218 0.497929752 -0.083479457
-0.687674820 -2.252109051 0.486189812
-0.869263470 -1.786185265 0.382186502
1.317117095 0.063416168 -0.190423846
2.262674332 -0.285070449 0.007404353
-1.177162528 -1.278321505 0.573236823
-0.882035017 -1.760930181 0.311560243
-0.316447705 -0.174746290 -0.337717474
0.920214057 -1.376775146 0.163889945
0.628003895 -0.035955179 -0.383546501
0.482430458 -0.545391262 -0.025187843
0.352576226 0.398896605 -0.688913941
-0.897940278 -0.959022760 0.110777453
-0.028088443 0.085733682 -0.148519635
-0.026426524 1.149785399 0.584685266
-0.130786911 0.323323876 -0.143490419
-0.255300164 -0.038397353 -0.384188503
-0.275112092 -0.053181931 -0.390558958
0.471957266 -0.534397364 0.292600513
-0.075518467 -0.076572619 -0.150234088
0.511484087 0.167497963 -0.374341249
-0.880541265 -1.463544488 -0.142082036
0.039969124 -1.115980387 0.581498444
-0.076241128 0.337186009 -0.152426183
-0.380079687 -0.030308628 -0.151789874
-1.571640253 -0.643207252 0.691005945
-0.813664079 -1.308694720 -0.115192711
-0.244978666 0.200433344 -0.601758242
0.137160331 0.385386050 -1.041617751
0.018825572 0.475283891 0.068970673
-0.450399667 -1.302778721 -0.008975169
1.736027360 -0.809048474 0.531998456
0.211162135 -1.482537866 0.023363549
1.211309314 -0.028611131 -0.014165519
-0.143122241 0.318986356 -0.145003244
-0.339996368 -0.091440320 -0.147294223
-0.102388434 0.483974487 -0.125954315
2.258315563 -1.405694246 0.053664047
-0.111639261 0.314766884 -0.154156536
0.308181971 -0.028544042 -0.151055291
0.213969246 -0.473420680 -0.193270341
-0.607025146 -0.640520871 0.685009181
-1.073644161 -1.069116831 -0.073918410
1.458313346 0.766645551 -0.250359476
0.202125102 0.771705389 -0.151390821
-1.150654912 -1.203483462 0.076997064
-0.248762026 0.192869872 -0.229097605
-0.027039971 0.170127526 -0.145269319
-3.130645752 -0.392185658 -0.003026399
-0.032317635 0.276611149 -0.144060642
-0.546664774 0.118369430 -0.119535059
-0.615573227 -0.224342450 -0.219789863
-0.942020059 0.098687388 -0.026738131
-0.454656929 0.012594535 -0.144223467
-0.481496125 0.090204976 -0.403682590
4.593642235 2.281095505 0.056515679
1.111102819 0.534999490 -0.176357076
0.262426913 -0.338396609 -0.377536982
-0.706970692 0.163653508 -0.040393773
-1.643429041 0.051350314 -0.020989239
-0.934846938 0.117797360 -0.402001977
-0.806309819 0.934207022 0.148483455
-0.087437682 0.504625916 -0.077666655
-0.891337633 0.081910744 -0.038514864
0.240448609 0.204050690 -0.204578072
-0.547501087 0.568518400 -0.189669475
0.010140449 -0.841312587 0.190945581
0.821936786 0.577689052 0.494113982
0.101925999 -0.243092567 0.672122777
0.423303068 0.066124231 -0.158764422
-0.667458355 -0.680830598 0.704711080
-0.868016124 -0.161326200 0.057991516
-0.098025337 0.484011859 -0.075884469
-0.000964815 0.120052934 -0.118396357
0.680585027 -0.282723844 -0.134005800
0.363469929 -0.365345418 -0.213885218
-1.024654746 -1.412294269 0.533409834
-0.639197171 -2.714691877 -0.490180910
-0.432231545 0.028265599 -0.147212341
-1.971356988 0.373902261 0.265452802
-0.020619282 0.131150618 -0.145935267
0.059243016 0.304600269 -0.145945862
1.572290063 -0.528880358 -0.067977495
2.318081141 0.824185073 -0.434661269
1.477884531 1.562286377 0.336170554
-0.212049797 0.053962741 -0.225132078
0.193281502 1.082275867 -0.211877376
0.017959991 0.043873485 -0.376808643
-0.031692963 0.095554374 -0.136998549
-0.399894446 1.263742328 -0.183318332
0.052348971 -1.338263035 0.662203848
2.831037283 -1.753338575 0.258040071
0.533825636 -0.189546093 -0.321216494
0.398097247 -0.160698980 -0.359040082
-0.193672776 0.303354889 -0.150513723
-0.822184622 -1.667928576 -0.008842452
-0.141960353 0.305567324 -0.151655421
-0.025777316 0.322531670 -0.141386747
1.072351217 0.199955523 -0.130583405
0.599208176 -0.004267457 -0.149007708
-0.430349082 -0.708725214 -0.142807707
-0.029188314 0.447336853 -0.479922980
-0.445431054 -1.351142764 -0.021903574
-0.165317461 0.520655453 -0.324621797
-0.023673762 0.393087834 -0.439030737
-0.136143416 0.318431377 -0.149004847
-0.121597461 2.003810167 0.114385024
-0.675844252 0.674296916 -0.191037133
-0.977832317 0.566256166 -0.368598163
-1.038874507 0.936458528 0.025728626
-0.542576671 0.012950195 -0.392095983
-1.256082773 -0.986101925 0.358306646
-0.379842073 -0.729282498 -0.000426967
-0.292976737 -0.060236301 -0.285197377
-0.481145859 0.619387984 -0.085042477
0.601894796 0.355228424 -0.504391193
-0.151041508 0.054593354 -0.321004629
-0.161469847 -0.007496156 -0.217672020
0.088772655 0.383024871 -0.070289932
-0.023912869 0.160712808 -0.137914732
0.628585219 0.088539407 -0.484390020
-0.551692724 0.096109860 -0.019944156
-0.206316724 0.254020542 -0.439586520
-0.985518396 -1.625381947 0.486623079
5.476655006 -8.714922905 -0.142949313
-0.792576730 -0.256864965 0.069836773
0.384815216 -2.607993603 0.458951503
1.718047023 -4.397391796 0.307868272
1.173430443 -0.138863623 -0.269257367
0.172759026 -0.715639532 -0.156676590
2.238172531 -0.268702149 -0.023665279
0.632196307 0.877053618 -0.215403214
-0.206943139 1.129963875 0.624893129
0.299220741 -0.376116455 -0.003741026
2.080117702 0.614459395 0.317638963
1.994825840 1.285432577 -0.125600129
-0.045360856 -1.675139546 0.453042001
0.361918271 -0.019382551 -0.143036932
0.787811160 1.275687456 0.625431716
0.218853414 0.843556404 -0.240964189
-0.056514863 0.501131415 -0.137891859
0.276093245 0.896068394 -0.044870503
0.869048238 -0.123847589 -0.100199938
-0.002351332 0.056364503 -0.133511499
0.294610083 1.114300489 -0.164507985
-0.102508478 0.241453826 -0.145687029
0.234730765 -0.272370040 0.792481780
0.174523026 -0.419485688 -0.384535819
0.839303613 0.398269206 -0.103686713
-0.393069059 0.837149024 -0.263783514
-0.505953252 1.028454423 -0.479683787
-0.392575622 0.833183646 -0.263883233
-0.060124263 0.503442824 -0.137612253
0.836979926 0.224886924 -0.104434334
0.316654444 -0.009624667 -0.372333258
-0.176024586 0.835695446 -0.068175957
1.535107017 -0.206919700 0.602015793
1.173249602 0.833851099 0.631440759
0.378722787 1.189740062 -0.159874231
1.090462565 -1.243266106 0.238863468
0.800136745 0.402396619 -0.363555610
0.085234083 0.482847422 -1.799759507
0.261055946 0.496167094 -0.819312036
-0.131281838 0.289257586 -0.144474328
0.014311469 0.204640210 -0.102513462
0.028222019 0.346638054 -0.425797135
0.692181408 -1.658454299 0.151475742
1.307462215 0.273484290 0.609355152
0.110616989 -0.323009223 0.721926868
-0.318368465 0.450626463 -0.056118377
-0.029403610 0.094559461 -0.138314754
0.277382076 -0.877724826 0.317929149
1.526812077 -0.609557927 0.496682912
1.878271580 -1.128216028 0.527916729
0.210397884 -0.274292856 -0.044132456
0.558528244 -0.261939019 -0.119891673
1.372155428 0.148360312 0.604715347
-0.480055273 0.635983229 0.011773152
2.389918804 -0.922933221 0.122377455
-0.085504815 0.176177219 -0.147984192
-0.095350154 0.339276642 -0.138497114
-0.049463656 0.067102239 -0.163430512
-0.112724237 0.249356523 -0.145270631
-0.139049083 0.314948887 -0.142650634
3.195985079 0.994284868 0.509687483
-0.098953404 -0.022423103 -0.113407373
0.421225280 1.241375327 -0.076785341
-0.116463594 -0.534829974 -0.207248449
0.564117491 -0.267295092 -0.113563299
-0.067866601 0.345795542 -0.139168024
-1.185531139 -1.279152870 0.577737331
-0.000301470 -1.659605503 0.464832157
-0.136844397 0.221521273 -0.146959826
1.838907123 0.545819640 0.285533816
-0.215606496 0.436826915 -0.277149111
0.174053386 1.147181869 -0.113218650
-0.138351932 0.312175661 -0.143308729
1.516378522 0.725765765 0.723382115
0.193244562 0.081519611 0.132184207
-1.189735413 0.769051194 0.005239003
-1.475491881 0.889039695 0.085577413
-0.244570628 -0.110801734 -0.326345235
0.363495886 -0.100981154 -0.153279006
0.359108210 -0.108402580 -0.153569415
0.546999812 -0.178414851 -0.365937948
-0.041507728 0.840137422 0.665385664
0.903107345 0.059745744 -0.276627600
0.864572942 -0.025554225 0.354370058
1.778888106 1.388885379 0.122550815
-0.446197003 -1.031065345 -0.096514724
2.518863916 -1.216575980 0.344664246
0.102235556 -0.295218378 0.716391563
1.276945829 -0.139454976 0.530501246
1.039796114 -1.289905310 0.628387928
0.004353138 0.062662028 -0.134545177
0.007826831 -0.445405006 -0.371343583
-0.519043148 0.221549436 -0.359775603
-0.420260042 0.073114306 -0.091473974
-0.451987296 -0.086973049 -0.138948679
-0.261050582 -0.093308493 -0.432029516
-0.318643719 -0.220817149 -0.153060973
2.205549479 -0.766698480 0.111691847
-0.172124892 1.898032784 0.083639115
-0.386622220 0.723967731 -0.076705992
-0.062263627 0.957749248 -0.171895191
-0.086065672 0.284046471 -0.141961679
-0.116755970 -0.556391954 0.444307894
-2.562036991 -0.355744720 -0.380502403
2.696472168 1.656498790 -0.389565617
0.591031551 -1.000827312 0.711441040
1.036466837 0.038495518 -0.272529572
-0.883303106 -0.185731739 -0.039235719
2.783076763 -1.375974059 0.382166833
0.093888335 -0.648631334 0.542022705
0.601220310 0.856983483 -0.212627366
-0.279664129 0.177162424 -0.316421479
-0.016073886 1.368414640 0.334010005
0.187761456 1.094712853 -0.077576220
0.014217569 0.031117084 -0.335176051
-0.118706748 0.264073044 -0.145825684
-0.104700051 0.240842924 -0.145487174
0.073304750 -0.625868499 -0.237109691
0.254213393 -0.006895951 -0.133411199
1.190864325 0.741433561 -0.365891367
1.638119698 -0.389965862 0.594838381
0.275017798 0.844908893 -0.244922191
0.737448514 -0.133571759 0.611143768
1.083774567 -0.073282681 -0.038603123
-0.005081456 0.135845006 -0.095990673
4.785202503 2.260023355 0.158864036
0.010329301 0.222131670 -0.102719255
-0.024246290 1.105227828 0.564225435
0.378600508 0.007104358 -0.359853983
0.802461326 0.720385969 -0.120182984
-0.213043869 1.024533033 -0.184344634
0.361134171 -0.021224333 -0.140770927
-0.588383734 1.819784760 -0.057367370
-0.001979387 0.136368841 -0.147747070
0.975228369 -1.698999763 -0.037059590
5.772606850 3.519131899 -0.343618959
0.622186720 1.102103114 -0.349986047
-0.001483163 0.140470594 -0.145129234
1.569901943 0.383222282 -0.183256105
0.904475272 0.425092995 -0.116703659
0.697651148 0.402549952 0.382230848
1.464271426 0.915037572 -0.414575368
-0.338485241 0.789242804 -0.091232345
0.039431404 0.069018647 -0.148439109
-0.192694068 0.413719624 -0.356966972
1.196954012 0.292652696 -0.119461559
-0.028296990 0.171828344 -0.096094519
1.883098602 1.351767302 -0.090412781
0.538952231 0.095139265 -0.360279620
-0.028519977 0.096986219 -0.143628389
-0.204872057 1.020297289 -0.084138587
1.812637091 1.413433433 -0.123060927
0.280362487 0.805632532 -0.358946681
-0.052201211 0.230712473 -0.145063758
-0.315110475 1.220347285 -0.134796023
0.468399554 0.046856370 -0.296489060
0.662953436 -0.431381881 -0.118013762
0.052517261 0.050151441 -0.142296270
0.751062155 -0.157124385 -0.231586456
-0.801763117 0.542654812 -0.324454486
0.277184993 1.073739529 -0.212381795
-0.006314940 0.135317132 -0.094664708
0.947351515 -0.792661548 0.086905822
0.826624990 1.214577794 -0.189533740
46.354522705 33.594203949 -3.321044207
-0.034699380 0.088369094 -0.148602232
-1.162639856 1.167963386 0.041803692
-0.273867279 1.196042657 -0.109635390
-0.064747855 0.352595150 -0.140336677
-0.103582442 0.336165667 -0.143388107
0.334239215 0.951288402 -0.051884972
0.384229630 0.002510755 -0.132019207
0.923387587 0.049946859 -0.140407145
0.318869144 -0.008033314 -0.376651615
1.052853346 0.068984769 -0.157789290
0.896958649 0.011131499 -0.141351670
0.615480542 0.035825875 -0.158512682
0.455495656 -0.090539590 -0.392654389
0.439933240 -0.209729373 -0.175541192
0.619165063 -0.244315416 -0.119502291
-0.028091518 0.092330344 -0.143802851
-0.092554279 0.242012113 -0.145217299
-0.125329435 0.275760323 -0.144066796
1.362755775 0.646320701 -0.235366404
0.055334911 0.060906358 -0.147147238
0.076993823 -0.005370469 -0.110965565
0.024866380 -0.015679324 -0.135274917
-0.174697474 -0.064314589 0.004121041
-0.269261748 1.154525399 -0.207560286
-0.049427684 0.049745716 0.080977462
-0.322838992 0.303777903 0.248635635
-1.059142828 0.624186337 -0.393033624
-0.125542536 0.189553022 -0.192433253
0.049426228 1.080967426 -0.051751085
-0.045446813 1.167842388 0.029036904
-0.487851650 0.607964873 0.010316256
0.116231941 0.131254792 -0.410816878
1.582269907 -0.345676720 -0.024385614
0.741092980 -0.133703262 0.615359902
0.279891253 0.798438191 -0.355803400
0.325625509 -1.583922744 0.070684381
0.574572682 0.974461555 -0.172199279
0.048099626 -0.092720389 -0.023114651
0.300931662 1.127944231 -0.088584930
1.371017098 0.002599220 0.609202683
2.532293320 1.055549860 -0.262595534
0.329304904 -0.018713353 -0.146076232
0.930866420 0.376079112 0.685585558
0.700868785 0.897847176 0.648030758
-0.060548417 0.230888143 -0.141924411
0.731467307 0.919702828 -0.344737679
-0.114955410 -0.201215371 0.011215628
0.414898008 -0.053763665 -0.362110913
0.232759014 0.044844031 -0.168966576
-0.955702484 0.803957641 -0.036139250
2.142520666 0.525420725 -0.241771549
0.685796857 -0.043718763 -0.199883699
0.190580830 -0.612860739 -0.371642202
0.184736282 -0.745449066 -0.160143182
3.319277525 2.415193558 0.046286609
-0.056989633 0.501705945 -0.137631327
1.361553192 -0.206470266 -0.037387308
-0.011257882 0.157631055 -0.146879837
1.553596020 0.750259936 -0.272773027
1.334122181 0.155070275 0.587692976
1.700162530 -0.794284642 0.528953195
1.723763824 -1.918329954 -0.027495580
2.897833586 1.976769328 0.541154146
1.715035081 1.365186214 0.579589844
0.012126077 0.053637985 -0.138373271
0.114946134 -0.337618262 0.733393371
1.839937329 -0.227377534 0.063431986
0.091139250 -0.306622356 -0.311915845
0.111845918 0.825743377 0.267791718
1.103215575 0.061703406 -0.166357458
1.293744445 0.559991419 0.621862948
-0.000884476 0.136953562 -0.100015558
0.788060665 1.291531205 0.632792652
-0.000458255 0.025290614 -0.208725959
-0.029354598 0.170124605 -0.144598007
-0.083532490 0.174464613 -0.149346530
2.324162960 0.771370888 0.498946995
-0.138135165 0.303494215 -0.144082814
1.929381371 0.386413664 -0.220110282
0.285927057 1.097065568 -0.083251238
-0.802270710 0.985768378 0.132973060
-0.036106244 1.019864559 -0.056195036
0.085674532 1.171757340 -0.231011838
-0.411315858 0.507838368 0.013030293
0.201684624 1.058797121 -0.100761138
