ply
format ascii 1.0
element vertex 1282
property float x
property float y
property float z
end_header
-0.006253599 -0.000029352 0.001437759
0.000415902 -0.001625348 0.004856720
0.000841919 -0.000082504 0.003238460
-0.012152772 -0.019935725 0.007061736
-0.011822410 -0.010600470 0.008781246
-0.005967619 -0.003382456 0.002876149
-0.015746314 -0.012437357 0.006007370
-0.006551458 0.000272351 0.003097454
0.002885203 -0.002736586 0.003468433
0.000183910 -0.000257145 0.002638859
0.004174772 0.000110407 0.003422051
0.000865595 0.001308048 0.003051276
0.000691046 -0.000472496 0.003574524
-0.007190869 -0.010255639 0.010723704
-0.003434387 -0.003273538 0.005098817
0.001002002 0.000346263 0.001662332
-0.026649904 -0.018919550 0.008630345
-0.024368776 -0.025862698 0.016602919
-0.017260125 -0.031577189 0.020355450
0.013220239 -0.008276077 0.012668933
-0.099704325 -0.171432868 0.064813375
-0.005970787 0.006592005 -0.004716956
0.000737825 -0.003147881 0.006434560
-0.001903618 0.013534532 -0.014248616
-1.088829875 -0.221015558 0.095572196
-0.016734330 0.004629156 -0.012196806
0.009048928 -0.030891962 0.024688929
-0.010467898 -0.004462810 0.005755394
-0.005334802 0.002045199 0.000113169
-0.016519986 -0.030636830 0.019630518
0.016103227 -0.013889113 0.016600097
0.029700344 -0.017573990 0.034667164
0.019006079 0.002554842 -0.010066031
0.010693831 0.006381007 -0.002424966
-0.015627684 -0.005189326 0.005503133
0.008595178 0.007074665 -0.005844458
0.000171174 -0.001931746 0.005059194
0.038302276 0.130867660 -0.063850537
-0.018663181 -0.037911419 0.027313661
-0.018876996 -0.013154355 0.009707975
0.015423918 -0.035899326 0.031702444
-0.035549521 -0.030671516 0.016211072
-0.003276552 -0.003867597 0.008211118
-0.003144331 0.006771859 -0.002872846
0.001471422 -0.004233274 -0.008633674
0.000307718 -0.003152015 0.003661936
-0.011888453 -0.013357958 0.002453962
-0.005489657 -0.005430470 0.002718391
-0.004667808 -0.028798129 0.016388128
-0.021426149 -0.015041724 0.005662004
-0.002796079 -0.006042898 0.008850354
-0.029779812 -0.031395264 0.015530977
0.000705105 0.000574351 0.002196938
-0.000843163 -0.001802638 0.004771289
0.002346152 0.000798888 0.004851718
0.000497128 0.000895478 0.002111460
-0.107302897 0.116935007 0.012341222
0.059897199 -0.361911714 0.263888061
0.006718971 0.031539936 -0.003122409
0.000241154 -0.000769454 0.008229222
-0.004156359 0.002461529 0.002312986
-0.002957369 0.000172460 0.001736898
0.000648668 -0.000435723 0.003547443
-0.002674883 0.017809721 -0.028876254
0.039030463 0.030589901 -0.028140156
0.007239651 0.032567106 -0.041414078
-0.004396383 0.000735928 0.001357742
0.008599564 -0.015711766 0.006436055
-0.011806761 -0.013573614 0.002467757
-0.007447754 -0.005846202 0.008895822
0.000721336 -0.003096747 0.006409467
0.000498597 -0.001623639 0.004780427
-0.000169327 -0.001105325 0.004177429
0.017797360 -0.000797501 -0.005751625
0.011727202 -0.001876464 0.011236729
-0.000535195 0.007420460 -0.005127917
-0.007327099 -0.003450910 -0.009881875
0.004586735 0.001808605 0.001352507
-0.006266483 -0.002973516 0.002349984
-0.519265771 1.446801066 1.018296480
-0.092655413 0.206718028 0.056760319
-0.004497723 0.003266389 0.016623612
-0.021964638 -0.016515717 0.003147125
-0.023894487 -0.024094349 0.015193297
-0.023443745 -0.023378184 0.014549761
0.028520757 -0.006406992 0.010428113
0.029313227 -0.001453033 -0.004857758
0.008443717 -0.049292464 0.043522708
0.033486236 -0.008426846 0.000750841
0.009037805 -0.005227331 0.000751871
-0.007299064 -0.003054305 -0.010401670
-0.031069912 -0.033174306 0.018694974
-0.000028661 0.000590404 0.002397339
-0.175996318 -0.124268271 0.027003942
-0.006298849 -0.014666251 0.003033245
-0.017509500 -0.013418022 0.000966036
0.003534491 -0.009981491 0.010561361
-0.019385761 -0.021780055 0.009742638
0.000741975 -0.000640507 0.003268338
-0.010033003 -0.005961116 0.006958439
-0.010405840 -0.022428516 0.014732285
-0.011157334 -0.012331608 -0.001998257
-0.008642914 0.008147952 -0.002451356
-0.014166397 -0.003869674 0.004342705
-0.085606053 -0.021176126 0.052013952
-0.029880963 -0.011500395 -0.001479548
-0.017361538 0.004922950 -0.009825130
-0.018941479 -0.006794303 0.005476293
-0.054175656 -0.085367627 0.106818534
-0.034628458 -0.009027014 -0.006170913
-0.017937679 -0.006018919 0.002498224
0.000794467 -0.004363899 0.000064820
-0.021787966 -0.005607848 -0.000199890
-0.006727872 -0.010643640 0.009263618
-0.000244626 0.000488706 0.002340446
-0.006717027 -0.000841283 0.003001977
-0.019091595 -0.013538240 0.001821925
0.000017590 -0.000232145 0.002719128
0.000644738 -0.000404635 0.003521937
-0.005255112 -0.011396323 0.004557502
-0.008127114 0.007754017 -0.002201230
-0.872661054 0.012683701 -0.120694190
-0.019421823 -0.005283208 0.000117170
0.000824812 -0.000102420 0.003149385
0.000615969 0.000830603 0.002166240
-0.010855740 -0.022242721 0.022802582
-0.001250652 -0.011545229 0.000718107
-0.158802673 -0.016303705 0.023340857
-0.015575297 -0.006248835 -0.006194144
-0.017797837 0.001369597 -0.006815559
-0.032755949 -0.008378694 -0.005275823
-0.015875930 0.002642561 -0.015722394
0.002183563 0.000388368 0.002532338
-0.033733007 -0.001639885 0.003547220
-0.497832179 1.388064265 0.153628096
-0.000100085 0.000040352 0.003064508
-0.102706142 -0.046263125 -0.049153954
-0.002569005 -0.006400110 0.008065098
-0.204747498 -0.021705717 0.071391307
0.000647386 0.000159267 0.002168039
-0.010724697 -0.007313108 0.003231045
0.001165727 0.001052559 0.002853554
-0.369813621 0.000645612 -0.046227179
-1.165978670 -0.089282125 0.293106079
-0.009584462 -0.009034421 -0.006743228
-0.003772415 -0.004649218 0.009028882
-0.004103956 -0.006620678 0.009304784
-0.001366622 -0.003080336 0.006026092
-0.000679080 -0.012347450 0.009242148
0.004828819 0.004212289 0.003074626
-0.006870274 -0.001901459 0.003454208
-0.004316262 0.001425384 0.004634562
-0.001221652 0.006261766 -0.002646904
-0.014662367 -0.002830030 0.007534727
-0.003345244 0.006683180 -0.002125335
-0.165038005 0.005423849 -0.045165621
0.004277832 0.001059559 0.003800799
0.002138655 0.000456465 0.002565368
0.000806011 0.002197455 0.002754994
0.000008599 0.000581073 0.002118085
0.005690381 0.008916848 -0.003166068
0.000719495 -0.000844372 0.003244620
0.034721293 0.022934014 -0.028239574
0.000811001 -0.000786907 0.003081413
-0.004915461 0.009751332 -0.021032767
-0.006742709 0.007848933 -0.001903007
-0.007947600 -0.008417287 -0.005163234
-0.007644364 0.000846383 -0.011838228
-0.022758162 -0.013477548 0.006000824
0.002090737 0.000948699 0.002371225
0.003168351 0.006608916 -0.003129522
0.000870104 -0.008011221 0.010728344
0.000834373 0.001502686 0.003758805
0.002815039 -0.001866286 0.005156946
0.000845783 0.001479104 0.003721485
0.001201868 0.004685147 -0.000536225
-0.012250670 -0.010761559 0.008850332
-0.005631939 0.010699352 -0.005368545
-0.002214214 -0.001226849 0.003026283
0.006632131 -0.006138474 0.011860976
0.040586229 0.030225432 -0.008542007
0.007232500 -0.006336854 0.012889603
0.044185828 0.023547942 -0.022271492
0.000511868 -0.001613377 0.004775753
0.001728912 0.008615003 -0.005811196
0.000563260 0.012239427 -0.012077494
0.011283636 0.003309408 0.004903608
0.001278753 0.005676862 -0.005818964
0.030832803 1.076059818 0.984269381
0.002370766 0.000742693 0.004748257
-0.019745823 -0.005246080 0.000345834
-0.002468618 0.006050980 -0.004376672
-0.014091146 -0.008609715 -0.002955741
0.001755261 -0.000259931 0.003935280
0.000913809 -0.000771682 0.006542702
0.001591314 -0.000736770 0.004196699
-0.010215110 -0.006547205 -0.004783208
-0.012141888 -0.013732896 0.002435140
-0.007995169 -0.005209359 0.009671630
-0.008226065 -0.003197675 0.002530584
0.000392552 -0.000050945 0.002786939
0.010733232 0.005483952 -0.001395684
0.060652222 0.065341741 -0.025963672
0.008417274 -0.008086990 0.011341471
0.082369030 0.053579926 -0.009739824
-0.000229306 0.000248275 0.002517247
0.000218052 -0.005511991 0.010779654
0.008618370 -0.010482847 0.012206228
0.127981663 -0.019093897 0.055874046
0.143601701 -0.047610879 0.043488875
-0.021621993 -0.015392405 0.005796922
0.009792938 -0.011145442 0.012858665
-0.014178016 -0.005629871 0.003958121
-0.023558106 -0.026821187 0.014671566
0.057949647 -0.007160696 0.005487189
0.000487743 -0.001570575 0.004736685
0.009214669 -0.007377947 0.011410207
-0.000480502 -0.007868057 0.015111833
-0.005248433 0.011194227 -0.023732450
-0.033296131 -0.018357184 0.005623827
-0.007204061 -0.010678205 0.013173221
-0.009852651 -0.001307176 0.004794031
-0.027331602 -0.005232011 -0.008678216
-0.005738637 0.007421671 -0.008752814
0.000012326 0.005601599 0.003210189
-0.145687506 0.199219257 0.615695477
0.003062818 -0.001285483 0.005247706
0.000694112 -0.000881466 0.003272179
-0.014058806 -0.009512619 0.007390589
-0.009804167 -0.001829364 0.000944211
-0.007633937 0.000970699 -0.012206392
-0.000120377 0.000403118 0.002296873
0.002279517 -0.009179021 0.009935094
-0.015279858 0.002028923 -0.014747144
0.000901364 0.004791181 -0.002600362
-0.678408861 -0.249313742 0.014096513
-0.000181426 0.026301509 -0.037542943
0.020729752 0.037774000 -0.046430904
-0.010376390 -0.006634068 -0.005179558
-0.347993016 -0.108541101 -0.045045365
0.000016270 -0.000313988 0.003321885
-0.013461137 0.001127715 -0.013702374
-0.016605202 0.005936267 -0.007921230
-0.004032905 -0.000803647 0.002639032
-0.093248308 -0.107921444 0.333361894
0.015223803 0.005765109 0.000364585
-0.016201679 0.010555192 -0.014465505
-0.000042628 -0.000577889 0.003101827
-0.000268440 0.000263321 0.002595067
-0.018070718 0.001663376 -0.007092420
-0.006892115 -0.008510866 -0.010031172
-0.000496753 0.001258815 0.001795852
-0.022852421 -0.007550505 0.005943620
-0.016186625 -0.024868865 0.008433026
-0.021506747 -0.014543751 0.001409765
-0.028068000 -0.012367697 -0.001346756
-0.006039919 -0.000005484 0.001447581
-0.009721810 0.003025320 0.002858711
-0.005125003 0.000767550 0.002525810
-0.005397369 0.001467611 0.000943900
-0.132291287 -0.106839895 0.105205782
-0.008573418 -0.003716866 -0.010421265
-0.014942149 -0.015240322 -0.003318608
-0.023081319 0.001792974 -0.015052194
0.000481979 -0.001615862 0.004776212
-0.006088185 0.006739826 -0.005006406
-0.004630440 0.001823597 0.000190776
-0.004940882 0.009754078 -0.020883152
-0.030022737 -0.000694147 -0.013499976
-0.007982415 -0.008440253 -0.005295590
-0.012913567 0.015846739 -0.029183956
-0.004781037 -0.008460440 0.008328608
-0.029503586 -0.041701615 0.030137334
-0.020064658 -0.005192905 -0.000099236
-0.000675400 -0.001142922 0.004092056
0.000014042 -0.000643478 0.003057069
-0.008588034 -0.003563076 -0.010627162
-0.013454556 -0.002500314 0.008983123
-0.005994026 -0.006215778 0.006362741
-0.001355864 0.006039597 -0.003903585
-0.013331084 0.005888318 -0.014467539
-0.006592991 -0.000496116 0.002490491
-0.011981282 0.016503057 -0.030106828
0.021667995 0.008627738 -0.015427656
-0.003418864 0.006351954 -0.004561745
-0.008875932 -0.003585374 -0.010813263
-0.026499370 -0.005300668 -0.008311654
0.034366377 0.027063515 -0.023514319
-0.015600270 0.013231592 -0.021023702
-0.002046986 0.019090543 -0.030986315
0.007360814 0.033661123 -0.043670412
-0.015100269 0.007650276 -0.015484966
0.020032652 0.035759982 -0.044497572
0.031048706 0.030219948 -0.035678342
0.000708652 -0.003122828 0.006418303
-0.000856305 0.006487878 -0.004349692
-0.011672542 -0.002969301 -0.016508868
-0.014139299 0.000936284 -0.005511344
-0.012067861 -0.003842670 -0.007461489
-0.038575351 -0.017069934 0.000070735
0.024278102 -0.005702715 0.009249656
0.005510851 0.005438453 -0.003892862
-0.001680784 -0.006677608 0.008991966
0.013838064 -0.002613850 -0.006799706
-0.023075629 -0.005888086 -0.000379378
-0.015645778 0.006694575 -0.020637982
-0.002535319 0.006016278 -0.004186319
-0.020607656 0.038246725 -0.042980980
-0.000286893 0.001200476 0.001710241
0.009883923 -0.003158215 0.012003019
-0.006113029 -0.000509297 0.002481923
-0.034356691 -0.015695978 0.000099592
-0.015916705 0.002411294 -0.015489967
-0.000851617 -0.001861393 0.004809368
-0.005390176 -0.006722874 0.008318508
-0.016779624 0.000526542 -0.013998983
-0.016238753 0.000521599 -0.013699498
-0.014120707 0.008710605 -0.010462623
-0.000687164 -0.001129711 0.004099880
0.006544978 -0.007938749 0.011567177
-0.011044868 0.016198037 -0.026905939
0.001017261 0.005148935 -0.002848293
-0.011319102 0.010368489 -0.023438161
0.012533659 -0.096804932 0.084905095
-0.000211479 -0.010444796 0.014244821
-0.012575239 -0.005166947 0.006743549
-0.003049344 0.008359130 -0.006212857
-0.001705775 -0.002910709 0.005811402
-0.003380388 0.000192470 0.002338684
0.000464207 0.001007373 0.002226379
-0.017135808 0.001306404 0.002529183
-0.000687394 -0.001130452 0.004093134
0.000515150 -0.001657178 0.004793151
-0.026772566 -0.004560963 0.001434197
-0.005942129 0.005615760 -0.005921036
-0.006051403 -0.000096971 0.001464982
0.000514441 -0.001631330 0.004769172
-0.000689338 -0.001143575 0.004099241
-0.000871715 -0.001834874 0.004807024
-0.003350639 0.007215781 -0.001117243
-0.020008897 0.002873522 0.003627632
-0.007548862 0.005527535 -0.007201051
-0.004454752 -0.004560788 0.005702028
-0.008988996 -0.001194652 0.000403914
-0.007470862 0.005800338 -0.024166068
-0.019557437 0.000592517 -0.011730256
-0.003764198 0.007497659 -0.006499668
-0.005952237 0.000035905 0.001765276
-0.006394301 -0.001012717 0.002904254
0.004129634 0.002409423 0.000843036
-0.005487358 0.006880925 -0.005774161
0.000006632 0.000017922 0.002973949
-0.007621540 0.000903252 -0.012056728
-0.006304948 0.006439686 -0.007291484
0.001072131 0.005210683 -0.002831752
-0.015929511 0.009076103 -0.018458780
-0.002935422 0.001293242 0.002127130
-0.003284225 0.001180724 0.004480756
-0.004356835 0.000086689 0.000753408
-0.005632574 0.000843164 0.000810328
0.000482478 -0.006277227 0.004057989
-0.004854119 0.001298082 0.000761556
-0.005387152 0.001429701 0.000885376
-0.005654301 -0.000399952 0.002544340
-0.005868964 0.000829153 0.000901356
0.005978849 0.003673898 0.004657721
-0.003145298 0.001614553 0.002131651
0.011943263 -0.004893807 0.008483268
0.000380310 -0.008188136 0.003022740
0.000099746 -0.001406179 0.004695303
-0.004150763 -0.000256535 0.002271285
-0.003161735 -0.000296577 0.002098542
-0.006582339 0.009578692 -0.011932119
-0.025606956 -0.005343853 -0.007978236
-0.013604091 0.006053906 -0.015150558
0.028281428 -0.010367836 0.006048813
0.018832911 -0.003752405 -0.004272665
0.000021260 -0.000649839 0.003089335
-0.006720177 0.000684139 0.003573931
0.000979773 0.005859646 -0.002624431
-0.006535769 -0.000494072 0.002484611
0.009468679 0.012125417 -0.011326388
0.073640987 0.029182175 -0.006198309
0.011342726 0.003342395 0.004852156
0.032775242 0.022951540 -0.024642583
0.028048789 0.000159360 0.000135048
0.003953487 0.015952623 -0.029065048
-0.000609368 0.009412557 -0.006695219
-0.001691457 0.005442829 -0.000481436
-0.008566922 -0.008710855 -0.005738975
-0.015851794 -0.006298101 -0.006378587
-0.028381117 0.005255979 -0.020940404
0.000275573 -0.001280661 0.004328629
0.005244180 0.008022722 -0.004395800
-0.005387714 0.006600872 -0.005540543
0.029036216 0.007250582 -0.008853163
0.000538786 -0.000597729 0.003511698
0.014792896 0.004424729 -0.009597310
-0.002888927 -0.000462225 0.001550074
-0.011548745 -0.008926856 0.004415798
-0.020253006 -0.006203285 0.001772963
-0.029907733 -0.012983983 -0.001550372
-0.004867468 -0.002588816 0.003919277
-0.022373876 -0.018207975 0.005199479
0.001457225 0.000562974 -0.014691292
0.006246889 0.005139672 -0.002067937
0.002151407 0.000966530 0.002329945
-0.005578157 0.004929911 0.001439791
-0.000898825 -0.001749954 0.004702068
-0.005443402 -0.000215023 0.002819388
-0.004468121 0.002678539 0.002380217
0.010950310 0.002348571 -0.006354958
-0.000753983 -0.001981291 0.004363541
-0.000737712 -0.001885059 0.004866688
-0.034659319 -0.015880739 0.000116606
-0.019945879 -0.009975521 0.000653394
-0.002552352 0.001113845 0.001688386
0.008951938 -0.010253806 0.012144192
0.009797893 0.008504936 -0.003912937
-0.008457385 -0.002114621 0.000119497
-0.012903683 0.015117430 -0.028897652
-0.004886172 -0.001971531 0.003501941
-0.014704442 0.009253957 -0.016911741
-0.042454127 0.124600232 -0.310082138
0.034088533 0.022256633 -0.027081307
0.018710677 -0.003657685 -0.004328837
0.000729675 -0.003125951 0.006434956
-0.010058578 0.039378013 -0.046144966
-0.008995962 0.006197928 -0.001038443
0.006008590 -0.009270415 0.011914479
0.005937925 0.003092610 0.000756414
-0.000491660 -0.000924160 0.000796504
0.006755433 0.000479412 0.008323907
0.027611734 -0.000200302 0.010758033
0.016635727 -0.007565728 -0.000016415
0.005691385 -0.008685077 0.005147982
0.005672454 -0.008684452 0.016413689
0.011870490 -0.019417608 0.009458791
-0.002371583 -0.005031908 0.001335373
-0.002831940 0.001697684 0.000421050
0.002735115 -0.018929692 0.012617012
-0.017636077 -0.026892861 0.005978345
-0.020841964 -0.023190426 0.010384635
0.000238348 -0.016899824 0.010771754
0.000333575 -0.002239118 0.002938439
-0.003606226 -0.009577250 0.002617887
-0.000555093 -0.009612442 0.003363961
0.040088851 -0.011655943 0.010256345
0.004812790 0.003023631 0.000823939
-0.010576145 -0.014485493 0.013298246
0.016408969 -0.002828221 0.003307438
-0.011868444 -0.006891067 0.007099894
-0.005294587 0.006351836 -0.006024025
-0.012617772 -0.011083476 0.010016218
0.000359411 -0.001147542 0.004293657
0.011063419 0.002922774 0.006472066
0.041240040 -0.004233212 0.005148432
-0.005244102 0.006234139 -0.005282156
-0.028298832 0.005452146 -0.020681234
0.016463429 0.006435561 -0.003208319
0.012939323 0.000848040 0.004044178
0.027372511 -0.011138177 0.006184346
0.033408154 -0.014313914 0.010669500
0.018591601 -0.002559361 -0.005218766
0.005505505 -0.003614800 0.011178064
-0.005679494 -0.003290600 0.002789518
-0.015356786 0.001128841 -0.005490776
-0.014125670 0.003750859 -0.014966317
0.005689718 0.003008192 -0.002032035
0.004698493 -0.003499745 0.011299026
0.098103113 -0.012921068 0.029251458
0.060788702 0.001835151 0.020473400
0.031180246 0.016705021 -0.015022595
0.040685330 -0.182790130 0.275536448
-0.001680818 -0.002887508 0.005841989
-0.005946898 -0.005886759 0.009290762
0.011732961 0.001182790 0.003109394
-0.067117311 0.168979108 -0.029213421
-0.001698200 0.003324653 -0.014788502
0.000508075 -0.001652235 0.004755481
0.321050704 0.262764305 0.456260711
-0.013733843 0.006697929 -0.013762265
-0.007472608 -0.005997122 0.005334389
0.013897824 -0.008414314 0.001222421
0.000716243 -0.008372444 0.013665547
0.030870801 0.010581022 -0.007530642
0.011167187 -0.002385651 -0.007319960
0.035613246 0.030425018 -0.038428716
0.030645924 -0.009063462 0.003780821
0.030027743 -0.006291679 0.001048696
0.031476513 0.022082774 -0.023676811
-0.005098559 0.009629246 -0.020618767
-0.002536822 0.018810701 -0.030393090
0.000011100 0.000654802 0.002119877
0.025995938 -0.003288422 0.014743102
0.011115878 -0.002983820 0.011379384
0.287695736 -0.021946641 0.059521459
0.009867325 0.007516079 -0.018430747
0.169055507 0.076306552 -0.025419928
-0.007002813 -0.000551411 -0.012179021
0.034912433 0.027155755 -0.024166401
-0.005901454 0.006377837 -0.002688066
0.023441782 -0.010703149 0.010137673
0.037238859 -0.015281145 0.011477171
0.047000244 -0.006781107 0.006017473
-0.005818292 0.006127330 -0.005116359
-0.005864060 0.005299265 -0.005224223
0.009788721 -0.008375112 0.012723181
0.009136920 0.004414268 0.004280263
0.052769236 -0.003141503 0.022763291
0.002567502 0.008584392 -0.005951937
0.006529937 -0.003880913 0.012532676
-0.002398111 -0.001159965 0.004483523
0.032027088 0.027667645 -0.034825765
0.010581782 -0.000304475 0.004132724
-0.000141413 0.019369561 -0.023389291
0.011788862 0.003682194 -0.001065981
0.000510209 -0.001622783 0.004749788
-0.010485149 0.197175115 -0.102241985
0.010325508 -0.002503752 -0.007576674
0.011321387 0.003260571 0.004931288
0.010634126 0.004891384 -0.001002218
0.000700724 -0.003102385 0.006393430
0.000154810 -0.005594369 0.010860399
-0.000838255 -0.001817885 0.004839296
-0.037214343 0.142691121 -0.163111165
0.000769451 0.020003378 -0.023650626
0.036471415 0.000135220 0.010334392
0.006822674 -0.008134494 0.011125218
0.021968393 0.044682454 -0.046817455
0.012575043 0.001582286 0.007940202
0.010761577 -0.003192662 0.011524536
0.014068290 -0.018360134 0.010581859
0.000011448 0.000022620 0.002986255
-0.004823396 0.004709827 0.003361778
-0.003484214 0.006369577 -0.004600895
-0.002408437 0.005296107 -0.003596300
0.002868545 -0.004304747 -0.008008219
-0.011792735 -0.005352591 0.009435310
0.028563896 -0.001178134 0.000469525
-0.001378560 0.001271822 0.004088985
0.012154030 0.000818409 0.003842192
0.011177059 -0.004753659 0.003571697
0.015849808 0.000957656 -0.007361879
0.001711559 0.000312981 0.002727050
0.007311972 0.003181405 0.000837633
0.010723487 0.004966834 -0.000947667
0.011147747 0.008440970 0.000947172
-0.168064207 0.105329834 -0.129726395
0.006563313 0.000258283 0.003066792
0.007959545 0.005852633 -0.002291309
-0.003685847 0.101227731 -0.111622095
0.007370320 0.006208286 -0.005148558
-0.005369152 -0.000437055 0.002485446
0.006307717 0.010937110 -0.023053145
0.001666242 -0.004240071 -0.009771206
-0.025217885 0.005003327 -0.017090306
0.011321351 0.000037379 0.004162287
-0.001978799 0.004111534 -0.016840408
0.014960916 0.030560417 -0.032416672
-0.003229433 0.006618612 -0.000897649
-0.009264426 0.023871142 -0.032112665
0.007222653 -0.000701177 -0.009327711
-0.030089527 0.005924328 -0.022360425
0.008037262 0.035771005 -0.045873370
-0.001618747 0.003541395 -0.015091078
-0.033879794 -0.022668822 0.010203131
-0.008715530 0.001807709 0.001243829
0.000310323 0.000814920 0.002127469
0.000756120 0.004505344 -0.002494734
0.000012325 0.000016700 0.002945883
-0.003163166 0.003959955 0.002756205
0.046940774 0.024167556 -0.039243352
-0.014506771 0.005257814 -0.018744249
-0.000762799 0.006778682 -0.004540893
0.008144885 0.003434775 0.004457970
-0.005245050 0.002999041 -0.000008577
-0.006398496 0.000953045 0.004677484
0.033998873 0.012112758 -0.005781484
-0.001615805 -0.002833342 0.005863026
0.001215523 -0.003796101 0.006569620
-0.007717838 -0.002063453 0.004478710
-0.018597115 -0.006072429 0.002140569
-0.140914395 -0.166390941 0.150805295
-0.006342887 -0.003492614 -0.007993951
0.000051981 -0.001891628 0.004990192
-0.005138682 -0.046870816 0.039379761
-0.000011897 0.000747329 0.002175716
0.006751329 -0.004089272 0.011259458
-0.007152574 -0.011207494 0.009728301
-0.009039232 -0.048879102 0.064429976
0.026216773 -0.006525766 0.011494990
0.014269719 -0.017924704 0.010176465
0.001719712 -0.005102247 0.006953637
-0.005892039 0.004478083 -0.001737241
-0.015638405 -0.008089579 0.004733648
0.026155474 -0.011379217 0.008603707
-0.000403660 -0.000859608 0.003812812
0.013821575 -0.000356306 -0.004852553
-0.001292947 -0.000269031 0.005068823
0.036128089 -0.005117128 0.015877057
0.025881555 -0.003091921 0.000549282
0.021497123 -0.001731556 0.001232461
0.005938563 -0.005625417 0.011279635
0.010661244 0.004917621 -0.001180359
0.005434685 -0.007481727 0.010927345
0.010223903 -0.001873228 0.011175701
0.095556684 -0.110773437 0.161983386
0.025990447 -0.011680266 0.010845870
-0.000669832 -0.001841062 0.004865978
0.015011238 -0.007880011 0.001592593
0.000545613 -0.009110258 0.012172927
0.000409665 -0.008926479 0.011903390
-0.022804976 -0.005117471 -0.006426016
-0.008845701 0.025847819 -0.034264557
0.015051036 0.005130244 0.000811771
0.369744301 0.027105993 0.023518333
0.016588459 -0.008136809 0.001499723
0.011908762 0.002719966 0.005842803
0.039750222 -0.003237926 0.016885344
0.052798629 0.115774572 -0.116053835
0.000302975 -0.001182998 0.004299744
0.006809383 -0.006117215 0.009175765
0.005033017 -0.005206578 0.010214757
0.000396269 -0.000105669 -0.000773057
0.017429842 0.018277993 -0.019207062
0.015835064 -0.014720590 0.006526044
-0.018720170 -0.003105804 0.007306449
0.003434490 -0.011455000 0.012107562
0.000054007 -0.000293832 0.003341834
-0.000052476 -0.001804612 0.004939381
0.006367006 -0.007141360 0.013394617
0.024911890 0.020106941 -0.028162353
0.002080071 -0.009389566 0.013598605
0.000505416 -0.001630778 0.004752399
0.028032366 0.010284263 -0.005552126
-0.005984580 0.005508247 -0.005650043
-0.005694610 0.013812046 -0.028158728
0.044403359 0.001147177 0.011345625
0.020293733 -0.010084110 0.007982834
0.012250795 0.002656356 0.006803169
0.085806593 -0.011459313 0.025979988
0.032394405 0.007387716 -0.006515921
0.028977316 0.004975185 -0.000305559
0.054059058 -0.003428965 0.011918531
-0.001646683 -0.002855486 0.005855022
0.104809538 0.014836017 -0.012645465
0.023049796 0.007411009 -0.015846992
0.018370248 -0.002447807 -0.005317191
0.203703001 -0.020003829 0.086410917
0.016670031 0.007570830 -0.013903370
0.002477945 -0.008771437 0.009646372
-0.000256064 0.000195634 0.002528031
0.000088579 -0.000603034 0.002699498
0.000565332 -0.001448179 0.005251274
0.000655112 0.000864704 0.002167374
0.014052871 -0.002656962 -0.006903435
0.051036995 0.001899281 0.012315769
0.015704390 0.007969526 -0.013531195
-0.005907000 -0.001631505 0.002946225
-0.006522482 -0.001642264 0.003580330
-0.002665099 -0.002417203 0.007857097
-0.007206155 -0.001864501 0.003939728
-0.004780667 0.002145818 0.003664050
-0.006138677 -0.001519148 0.003265016
-0.005084221 0.001487311 0.000853901
-0.004435366 -0.000336757 0.002803832
0.012480009 -0.005598768 -0.000157516
-0.000663532 -0.000997024 0.003601772
-0.001497311 -0.001633296 0.006396580
0.010261991 -0.006048583 0.010126003
0.001978750 -0.004531029 0.010036102
-0.000062526 -0.000855770 0.003968075
0.011355434 0.001298546 -0.012769819
-0.002368874 -0.004340216 0.007991808
0.006730048 0.000345951 0.008210429
-0.003526114 0.006548662 -0.005658201
0.001650559 0.005167472 -0.005220084
-0.004029965 0.000457937 0.001689672
-0.014485013 0.004143589 -0.009380819
-0.014505659 0.031015472 -0.001659625
0.001106601 -0.005755876 0.006737894
0.034132175 -0.014579204 0.010952128
0.007365974 -0.005505135 0.014152936
0.025120169 0.001055375 0.002389796
0.006599275 0.000295203 0.008402479
0.002104363 0.000952642 0.002323415
0.000945426 -0.000454208 0.002795420
0.000793233 -0.000079702 0.003126492
0.013354560 -0.026975436 0.018469606
0.009093131 -0.010487673 0.012184815
0.054244075 -0.006537675 0.004724250
0.007428946 0.007214718 -0.005206620
-0.006270297 -0.000298451 -0.000212944
-0.000312482 -0.001112634 0.004143509
-0.009809336 -0.001270273 -0.001064200
0.015485167 -0.013043367 0.005250563
0.006285950 0.005231138 -0.001958459
0.018723102 -0.000668243 -0.006000533
0.006745640 0.008029752 -0.007431462
0.009674428 -0.007976845 0.012151966
0.000101234 -0.001899162 0.004993888
0.006772479 -0.008246365 0.012414906
-0.000145496 0.000299181 0.002196672
0.001117883 -0.007003252 0.009934012
-0.002026597 0.005229741 -0.006009684
0.006105889 -0.003960402 0.010171473
0.003483325 -0.009936070 -0.000367622
-0.000268022 0.000254177 0.002586379
0.045758247 0.020104334 0.040790699
0.008743873 0.004841046 0.007052191
0.001679114 0.001504413 0.002999942
-0.002347530 -0.007679537 0.012267362
0.005973168 -0.007191298 0.011273015
0.000026924 0.000436911 0.002291526
-0.008162467 -0.005977834 0.007783445
-0.125485152 -0.061155681 0.067800745
0.005221698 -0.002167763 0.010222876
0.012644037 -0.023489855 0.015532084
0.011623291 -0.024294529 0.017637771
-0.003046255 -0.006384982 0.007710885
-0.000046488 -0.013194826 0.013580355
-0.010118961 -0.007772989 0.008522107
0.024351437 -0.002982078 0.003427701
-0.010833135 -0.010418240 0.009621417
0.015829757 -0.013249530 0.005251344
-0.002921663 -0.006449681 0.007903877
0.006773701 -0.005340668 0.010118215
0.082616195 -0.003901937 0.016920006
-0.004575108 -0.006213089 0.007598966
0.009697215 -0.002294884 0.010158507
0.026046075 -0.000109899 0.000343709
-0.000857712 -0.001817674 0.008214718
0.000302163 -0.001184494 0.004307246
0.000444603 -0.000228448 0.002527796
0.002158873 0.001828388 0.000742494
-0.002911376 0.006253127 -0.017631983
0.006984856 0.006768945 -0.004887022
0.005917536 -0.007691938 0.011352886
0.044485342 -0.012838088 0.011148776
-0.003988616 -0.007861791 0.007933401
0.000677907 -0.025198201 0.026324643
0.027197620 -0.001174437 0.000520769
-0.000858468 -0.001843386 0.004873587
0.008666532 -0.011715360 0.013300454
0.000011409 0.000435093 0.002217144
-0.013307336 -0.007717823 0.009190936
0.018796889 -0.003583021 -0.004367845
0.056933429 -0.046839334 0.018826438
0.000043244 -0.000545962 0.002445647
0.021263897 -0.006621490 0.006507833
0.027318999 0.000392591 0.003221590
0.016846010 -0.006132132 -0.000626100
0.006546232 -0.007757542 0.011293210
-0.005479899 -0.003751583 0.011365842
-0.004272356 -0.005838511 0.007129472
-0.009227885 -0.007559594 0.011214195
-0.002992294 -0.006395055 0.009362482
-0.009095622 -0.005803026 0.009466717
0.000120044 0.000899520 0.002406893
0.001212302 -0.001427360 0.004440832
0.000805868 -0.000995421 0.000238553
0.000284635 0.000892698 0.002280911
0.000134239 0.001112596 0.001842153
0.001618824 -0.003791536 0.008407430
-0.001942203 -0.009028002 0.004993115
-0.003969504 0.001327953 0.004237425
-0.000278063 0.001664425 0.002293339
0.037790079 -0.003375714 -0.000206347
0.000214563 -0.000935521 0.003216107
0.000743928 -0.000787287 0.003125840
0.001048216 -0.000588522 0.002283633
0.002026950 -0.001024198 0.002535989
-0.004513098 -0.000523482 0.004786195
-0.019595802 -0.001714187 0.000645609
-0.018175643 0.003950287 -0.012177313
-0.000850323 -0.001860806 0.004806437
-0.000050424 -0.001830210 0.004934752
-0.006931061 -0.000096930 0.002293225
0.000237498 0.001111131 0.002177298
-0.014334156 -0.008591787 -0.003058896
0.000451810 0.000670101 0.002318163
-0.010112354 -0.005578754 0.008563148
-0.018147824 0.002154142 -0.007602793
-0.002490378 0.017768515 -0.028806964
-0.000006453 0.000532518 0.002267879
-0.004066608 -0.000516668 0.001402925
0.003203453 -0.001119098 0.002792468
0.006177172 -0.005868503 0.011015604
0.016396038 0.003814324 0.002119533
0.006387723 -0.010248432 0.014211562
0.083493516 0.065483235 -0.034258470
0.007013025 0.005249070 -0.001887218
0.005436063 0.006184833 -0.002875427
0.003005912 -0.009256212 0.012594880
-0.000056096 -0.009795403 0.013696719
0.011083351 -0.003717969 0.013271106
0.000117255 -0.000904059 0.003184133
0.000140086 -0.001891238 0.004993247
-0.001715340 -0.006189594 0.009190144
0.011300892 -0.002345150 -0.007490940
-0.025344156 -0.042924747 0.027003137
-0.000158152 0.000741100 0.002281490
-0.014135163 -0.022342669 0.011459456
-0.010773409 -0.006569114 0.005127149
-0.212864697 -0.096723475 -0.103009745
-0.003484100 0.001341727 0.004978825
0.006427479 0.011757527 -0.024550684
0.027729593 -0.001284929 0.000373848
0.025995256 -0.003530515 0.014880929
0.037033390 -0.003097734 0.016630983
0.014960470 0.015808657 -0.018141614
-0.001637819 0.003305006 -0.014722091
0.000622655 -0.000467054 0.003532776
0.034014739 0.033472098 -0.044775151
0.002162433 0.000987843 0.002356911
-0.000275068 -0.000279922 0.003207388
0.009966707 -0.001606409 0.006032143
0.006398027 -0.005100850 0.009670968
-0.005304031 0.013805137 -0.028093815
-0.004632368 0.010185462 -0.013716044
0.029425157 -0.003579450 0.000774959
0.028818695 0.000858020 0.017851731
0.008843365 0.001064208 0.002301273
0.010963413 -0.003792584 0.011322470
0.274065048 -0.039104372 0.070387900
-0.006887380 -0.000819357 0.002979434
-0.003520989 0.001302767 0.004954723
-0.004752869 0.000954892 0.004109031
-0.006227027 -0.000694478 0.002628102
0.011229265 -0.009180999 0.012146202
-0.012558335 -0.010863421 0.008939675
-0.020018883 -0.007966618 0.008782009
-0.013243822 -0.003033436 0.002077878
-0.060199011 0.020831928 0.094924912
-0.005393378 -0.000303286 0.001930617
0.025587073 -0.006988361 0.010659724
0.011538669 -0.060721081 0.040654942
0.000283795 -0.000382448 0.002578421
0.009940234 0.004580739 -0.000862294
0.024093635 0.013838322 -0.022020137
0.002199884 -0.006193663 -0.000328005
0.002872416 -0.008164537 0.010189293
0.000113941 0.000769085 0.002436306
-0.003457636 -0.006550135 0.006639819
0.004243959 -0.004299719 0.006213471
0.003868411 -0.008390185 0.010839030
-0.007963396 -0.002024346 0.004395954
-0.000752009 -0.000889070 0.007825561
-0.000743900 -0.000873986 0.007819481
0.004998906 0.005052990 -0.002618036
0.007979830 0.005460267 -0.003424205
-0.001440728 0.001673882 0.002348698
0.000101901 0.001315588 0.001530138
-0.001406120 0.001549868 0.002128986
-0.004892961 -0.002579940 0.000672362
0.000420378 0.000874539 0.000254900
0.045471847 -0.003083005 0.020206997
0.002925582 -0.004588441 -0.008230468
0.002829086 -0.004518047 -0.007888132
0.000869225 -0.002519842 0.006105516
-0.006445677 0.001066489 0.004670509
-0.000212616 0.001101647 0.001856349
-0.010181268 -0.005492894 0.008650734
0.000009256 -0.000295487 0.003348235
0.000546894 0.000927404 0.002209119
0.000789299 -0.000084688 0.003209211
0.003990379 -0.012014360 0.010329676
0.000584644 -0.002729587 0.003823834
-0.005857454 0.005331737 -0.005201876
0.018462205 0.034093697 -0.041669004
0.120307460 0.089034550 -0.108487360
-0.000188478 -0.001910066 0.004998566
-0.018800952 0.013067366 -0.018001579
0.065918185 0.075982831 -0.083697639
0.000110646 -0.000407845 0.002805276
0.014706455 0.005731255 0.002614658
0.015305554 0.002556842 0.002873169
-0.000871468 -0.001842143 0.004800593
-0.000925140 -0.001878633 0.004830322
0.000887764 0.004943175 -0.002750267
0.011018340 -0.003386039 0.010314547
-0.001381063 -0.013008806 0.000886022
-0.011137700 -0.024274576 0.010162137
0.004757347 -0.009202951 0.012618528
0.010752109 -0.022469040 0.016271872
0.013677104 -0.025486425 0.016937064
0.021691229 0.012029706 -0.019410124
0.005874088 -0.008152364 0.011973257
0.006928734 -0.005803565 0.008956597
0.021172352 0.007516616 -0.015072271
0.004469399 -0.010190932 0.006989871
0.014367841 -0.046884872 0.033780187
0.016967280 0.000673777 0.009070845
0.014635162 -0.015402097 0.008596381
-0.033024702 -0.008286636 -0.005263228
-0.000210643 -0.002030110 0.004019204
-0.154479712 -0.178188816 0.139991567
-0.020776359 -0.009816862 -0.000604898
0.000872366 -0.007515352 0.007779679
-0.031639412 -0.000443563 -0.014168744
-0.008658493 0.007472048 -0.009589677
-0.007452954 -0.003212026 -0.010507862
0.000139497 -0.001868410 0.005015356
-0.000198149 0.000202918 0.002329677
0.003675543 -0.005734675 0.007618341
0.004135781 -0.008963582 0.011690708
-0.044909000 -0.004354546 0.012981314
-0.006508021 0.003816655 -0.003774659
0.000634619 -0.008938950 0.011934274
0.004346820 0.004540529 0.003171630
0.007160414 0.000303569 0.008323403
-0.001620677 -0.006711100 0.009081332
0.001567254 -0.004312875 -0.007768160
-0.003447092 0.006382897 -0.004580040
0.001723871 -0.004540930 -0.005056303
0.000702814 0.000796703 0.002228695
0.000144168 -0.000113190 0.003054595
0.017163536 -0.005759217 -0.001207636
0.103404082 -0.067058831 0.020182973
0.003993054 -0.000407936 0.004488289
0.001170835 -0.002865626 0.001190412
0.009202548 0.007197930 0.005693248
0.003884328 0.001120609 0.004320269
-0.008926087 -0.004438882 0.010010733
-0.000335774 -0.000108325 0.003065065
-0.000745674 0.006478104 -0.004276264
0.000081121 0.017604480 -0.018990394
-0.005366627 0.006508991 -0.005632631
-0.005003121 0.003451496 0.001913755
-0.015552399 0.001603158 -0.006958656
-0.007509221 -0.002195957 0.004934071
-0.001806264 0.003136366 -0.014530279
0.003569981 -0.011581608 0.012763485
-0.001605644 -0.002920366 0.005802406
-0.008857823 0.007532819 -0.009169141
0.016226701 0.000895437 -0.007422674
0.011201774 0.002291318 0.005930423
0.000019450 0.000282883 0.002369898
-0.002191783 -0.002459111 0.001881085
-0.008729547 -0.005777220 0.009134721
0.010138026 0.002416675 0.005936374
0.058066204 -0.004702799 0.012393368
-0.005564458 -0.002299414 0.001938754
-0.001727354 0.006630441 -0.000520671
0.023230437 0.013071673 -0.021036770
0.014442867 0.001464282 0.003853000
0.009304498 -0.002962240 0.011914166
0.006291339 -0.010425650 0.011198857
0.025486028 -0.010449663 0.009143465
-0.000252072 -0.000262208 0.003259894
-0.000393618 0.001004069 0.001732205
-0.167807877 -0.110288680 0.072345994
-0.004375177 -0.003674051 0.006777795
-0.016577387 -0.006324566 -0.006931134
-0.010863169 0.024100164 -0.032902181
-0.005844351 0.000170243 0.003748502
0.015956160 -0.007270226 0.000037553
0.001628026 -0.004256756 -0.008670944
-0.011723723 0.018525701 -0.030361010
-0.014304356 0.011192072 -0.024454808
-0.022037281 -0.005565085 -0.000446874
-0.021629035 0.040358588 -0.044432670
-0.004191845 -0.010390527 -0.002960959
-0.004646073 0.009481433 -0.020441929
-0.003470534 0.001573785 0.004009391
0.002125668 0.001050981 0.002323913
-0.010860400 -0.012167988 -0.002032003
-0.010922384 -0.013202423 -0.001034769
-0.004537276 -0.003858794 0.004089429
-0.189731479 -0.107752368 0.008533728
-0.004055539 0.001116203 0.004223133
-0.004014008 0.002893182 0.003104235
-0.017252041 0.000913947 -0.009931633
-0.004187406 0.007072698 -0.000146448
0.006356895 0.003729127 0.004522946
-0.013247570 0.017196504 -0.022493761
0.072355799 0.031125458 -0.094291024
0.007375943 0.004707163 -0.001525483
-0.018604476 0.002835048 -0.009622725
-0.007211300 0.004780422 -0.003995892
-0.016021222 0.003960459 -0.012081425
0.036623906 0.024137123 -0.029523581
-0.017138494 0.011592626 -0.012723040
0.024212530 0.017358154 -0.024438187
-0.006570057 0.019185610 -0.022847148
0.000034949 0.000460179 0.002230104
0.003464591 0.003309624 0.004222843
0.001413017 0.000426706 -0.000168466
-0.005947267 -0.001933971 0.012066079
0.006439529 -0.013418210 0.006199071
-0.009908332 -0.003406505 0.008898755
-0.005079032 -0.003472558 0.010371786
-0.006255993 -0.008375474 0.010989495
-0.004633497 -0.005169856 0.008437403
-0.000291097 0.000283367 0.002485921
-0.001966621 -0.007018320 0.006792132
-0.000628487 -0.000481207 0.003413406
0.003492677 0.003473970 0.004337187
-0.008393798 -0.007454995 0.007563668
-0.002238570 -0.006410208 0.011646037
0.000833374 -0.000234974 0.003004473
0.000962969 -0.009614889 0.011390529
-0.002235945 -0.006420973 0.011626835
-0.004171019 0.001838224 0.003131680
-0.000294480 0.000282251 0.002539917
0.002062755 -0.005117405 0.008882418
0.000041501 -0.000806012 0.003031473
0.000438058 -0.000439964 0.002528629
-0.004704630 -0.007833591 0.011119386
0.006457771 -0.005515780 0.007135173
-0.008222594 -0.003895206 0.010046095
0.000765370 -0.001657351 0.000580628
0.000016940 0.000566402 0.001914601
0.002455977 -0.001289010 -0.000175979
-0.004740418 0.003437486 0.000923366
0.009902347 -0.000166363 -0.008041919
0.005820948 0.002869623 0.005394496
0.014905754 0.007506991 0.002134419
-0.008846273 0.007912808 -0.010087037
0.000332518 -0.001332426 0.004357039
0.013783302 0.006021054 -0.001055590
-0.025101090 0.008043409 -0.018724645
-0.001708409 0.004675611 -0.018219294
0.000409521 0.000625264 0.002251560
0.018591041 -0.002575985 -0.005184534
-0.035141028 -0.008671061 -0.006041741
-0.002385075 0.003290675 -0.014915618
0.000633230 0.000605769 0.002282089
0.261910707 0.019381931 0.033768326
0.000764679 -0.003101920 0.006449573
-0.000863854 -0.001855001 0.004793250
-0.005693128 -0.003958796 0.011653629
-0.009234371 0.005692692 0.005953392
-0.006527849 -0.006974163 0.008246603
-0.006889100 -0.009788672 0.010181915
0.001351827 0.003163426 0.005365343
0.008578070 0.006746083 0.005262691
-0.008176238 -0.010116485 0.012532162
0.002423340 0.002659490 0.003161688
-0.000021377 0.000436350 0.002131064
0.002617027 0.002506434 0.003298650
-0.002634485 0.001575718 0.003008917
0.001313598 0.001648481 0.000633325
0.000093502 0.001372974 0.001574005
-0.008610218 0.007206546 0.002519662
0.013102593 0.012678251 -0.011103812
0.002786785 -0.004367982 -0.007944825
0.010975231 0.007092530 0.001558819
0.003743611 -0.001577766 0.007726324
-0.000705115 -0.001153338 0.004101024
0.000088287 0.000432925 0.002232354
-0.003503461 0.003872399 0.002441926
-0.010361742 -0.003012292 0.003616204
0.005914776 -0.004382857 0.011488178
0.007794821 0.005999350 -0.002238392
0.016321357 -0.007991294 0.001642169
-0.006497063 -0.007701823 0.009580947
0.032454181 0.017412473 -0.020688580
0.060504187 0.001933426 0.019815193
0.000992000 -0.000392768 0.002864006
0.000128543 -0.000420110 0.002693899
0.000197266 -0.000070353 0.002693002
0.007526974 0.005391923 -0.001987797
0.000338452 0.000028114 0.002581822
-0.000740956 0.001648111 0.004199161
-0.000533543 -0.001093081 0.004103865
-0.000878773 -0.001859050 0.004918189
0.011435512 0.002001190 0.002257395
0.006595429 -0.007966726 0.010919490
-0.000002101 0.000531481 0.002254107
-0.002551900 0.005794987 -0.003983158
-0.000281568 0.001178987 0.001735416
0.002222331 0.004701824 -0.000962496
-0.001722497 -0.000498786 0.007733239
0.018190237 -0.000692767 -0.006088405
0.002063360 0.000944009 0.002337267
0.224397913 0.116975546 -0.044073775
-0.013887810 0.036792625 -0.060270350
0.003886095 0.003199588 -0.004521279
0.000932321 0.030632449 -0.043298744
0.014296171 0.006515185 -0.001411142
0.000734818 -0.003120272 0.006429523
-0.015492606 0.002788306 -0.010074998
-0.005339961 0.002250486 0.003753364
0.002099264 -0.004680688 0.009977172
0.004986754 -0.008166639 0.011608521
0.009563611 0.004278864 0.000799377
0.011951302 0.005618642 -0.001441970
0.002925578 0.004943984 -0.003588718
0.004858861 0.007693866 -0.004496458
0.008014686 -0.005358017 -0.000862664
0.007185013 0.006456707 -0.002857881
0.002008569 0.002194347 -0.005863423
-0.000963525 0.007252156 0.013254402
0.006818270 0.004712826 -0.001491236
0.027498929 0.019104470 -0.030426107
-0.005072124 -0.002024884 0.001812246
0.012584102 -0.023122901 0.015249367
0.014453570 -0.015516632 0.008627906
0.011589318 -0.006339061 0.001249074
0.010248578 -0.005320137 0.007790975
0.006260754 -0.006510582 0.010018504
-0.001721527 -0.002908952 0.005800298
-0.015691774 0.003788079 -0.011833166
0.002884318 0.002897525 0.000018446
0.043187231 0.000304502 0.015610776
0.011932814 0.004132789 -0.000526627
0.011859724 -0.001956364 0.011369982
0.011991580 0.010783712 -0.020765051
0.001021756 -0.000576972 0.003346801
-0.000670517 -0.001125220 0.004105843
0.017856227 -0.003937156 -0.003877684
0.003159425 0.000743860 0.001023484
0.000330850 -0.008174730 0.011028459
0.001423892 0.003333335 0.005592813
-0.009312349 -0.004604057 0.010694212
-0.004721090 -0.007901670 0.010179789
-0.002935558 -0.000100461 0.005294600
-0.000988689 0.000473060 0.001756480
-0.001637169 -0.000871873 0.000297448
0.000991067 0.001288020 0.000645340
-0.007136654 -0.004404823 0.003383615
-0.004933808 0.003515110 0.000966938
-0.002635809 -0.001799679 0.000530353
0.000990287 -0.000457620 0.002867660
0.001037946 0.001063077 0.002016056
0.004765769 0.003939862 0.002903210
-0.000988069 0.001447450 0.001984064
-0.004508578 -0.002609295 0.001719338
0.000905310 0.000989717 0.001818032
-0.001515269 -0.001552862 0.006442778
0.000305812 0.001601243 0.000538621
-0.000144327 -0.001500162 0.004479772
-0.009705651 -0.000838566 0.008034464
-0.006991557 -0.005677061 0.008748564
-0.003480034 -0.006866965 0.008372230
-0.000300851 -0.000239063 0.002798498
-0.005486334 -0.003786803 0.011157820
-0.003283279 -0.006777786 0.008064480
0.004504018 -0.011285414 0.011517179
-0.003610930 0.001344620 0.005142684
0.001158930 -0.007843695 0.011613540
0.000492105 0.000686265 0.002187705
-0.007158933 -0.008117214 0.008657456
-0.000220227 0.002894593 0.003854660
0.000144501 -0.000874014 0.003557258
0.000039034 0.000764710 0.002014882
0.001696200 0.001472091 0.002948264
0.001752610 0.001496327 0.003041102
0.006010891 -0.009349332 0.011898294
-0.004067571 -0.006656438 0.008915271
0.015719226 0.003453038 0.002170508
0.006278559 0.000968690 -0.001153584
-0.005598076 -0.001514431 0.002756758
0.008946678 -0.011703483 0.013478729
0.010836117 0.003164696 0.004651855
0.000526449 -0.000793367 0.002697536
0.006080226 0.001051595 -0.001179489
0.044197749 -0.005583682 0.017665282
-0.005873515 -0.005987199 0.009144925
0.004143586 0.004684148 0.002405261
0.009690194 -0.004135628 -0.000234606
0.020801099 0.007658252 -0.015135663
0.000637648 -0.003070225 0.006237562
0.000143717 -0.001897358 0.005037468
0.000354192 -0.001384918 0.004592940
0.000204725 -0.001127367 0.004255523
0.000000945 -0.001124225 0.004198690
0.000709178 -0.003105238 0.006375711
0.000242188 0.000005397 0.003023882
0.011936003 -0.006131824 0.000491456
0.015100478 0.021866191 -0.020846266
0.022386041 -0.008395976 0.011707369
0.029997841 -0.012821765 0.005538063
0.119630091 -0.053869411 0.163585469
0.005380259 0.006512644 -0.003024665
0.009526785 0.001179096 0.002407533
0.019183908 0.001510907 -0.009141877
0.033637304 0.042642210 -0.039777532
0.010487080 -0.005570775 0.000732357
0.004162357 0.020572072 -0.026039928
0.013040924 0.001098092 0.005159964
0.085405968 0.000170419 0.023656573
0.006451409 0.007927166 -0.007351880
0.005999791 -0.010136310 0.012444342
0.018674169 -0.027423831 0.021898082
0.016403861 -0.006324775 -0.000515237
0.011084423 -0.006158348 0.010689015
0.000029398 0.000440805 0.002552460
0.000282998 -0.001006839 0.000404033
0.000094019 -0.004954956 0.001799848
0.000171009 -0.010267059 0.003729846
-0.002220760 -0.006789367 0.008186512
0.000952139 0.001560780 0.003950125
-0.000802648 0.000340181 0.001123256
-0.006246689 -0.007691551 0.008038126
-0.003890619 -0.006778270 0.006803067
0.002356482 -0.001727560 0.005301775
0.001673355 0.001500379 0.002969294
0.008235872 0.000767232 -0.004320284
0.002300221 0.003219700 -0.002922754
0.121857971 -0.006180047 0.020974442
0.019853922 0.002580819 -0.010341583
0.017891698 -0.000625621 -0.005658924
-0.014698086 0.029846024 0.049291492
0.003576045 -0.010136352 -0.000360053
-0.006304102 -0.001829567 0.003335583
-0.001445193 -0.001657670 0.005979687
0.024239173 -0.003359330 0.003273384
-0.000430192 -0.008562380 0.011990649
0.010173659 -0.008467630 0.003259422
-0.001510638 -0.000436769 0.006498427
-0.006455353 -0.000767270 0.002747222
0.042935796 -0.005368042 0.001372074
0.005744438 -0.005728531 0.008573991
0.000096831 -0.000458490 0.002885188
-0.002962792 -0.004621465 0.012434210
-0.010248277 -0.004344869 0.009967481
-0.005638702 -0.005847192 0.011009455
-0.000824056 -0.001933697 0.005313166
-0.010196577 0.017265124 0.026526513
-0.000017159 0.000042734 0.002797875
-0.015983552 0.025941523 0.039609574
0.010768105 -0.002963050 0.009956520
0.000171379 -0.000729207 0.003028657
0.020696666 0.008136790 -0.015053984
0.002550060 -0.006725780 0.011368784
0.004328802 -0.003332743 0.010735787
-0.011288874 -0.008556169 0.009237612
0.000349983 0.000065353 0.004608654
0.004400984 -0.010496628 -0.000500519
0.000006707 -0.000274126 0.003193071
-0.005010717 -0.000068139 0.001132838
-0.000267812 0.001208283 0.001775834
0.000084347 0.001046231 0.001629706
0.000133738 0.001109441 0.001728905
0.008977092 0.004762955 0.006785662
0.062793329 -0.005882295 0.024351384
0.007525245 -0.004877474 0.000606797
-0.006358409 -0.007180713 0.008767349
-0.008392734 -0.004177269 0.009326600
0.000454192 -0.001500983 0.004431844
0.016134424 -0.009851080 0.015866458
-0.000274123 0.000207022 0.002432732
-0.000285626 0.001126259 0.001624724
-0.001610842 -0.003774342 0.005136616
0.000114561 -0.005862866 0.011052497
-0.007446183 -0.008315871 0.013748230
-0.009180660 -0.005499411 0.012699693
0.010084653 -0.003315949 0.011013747
-0.007810133 -0.005948856 0.007301816
0.001383565 0.001712773 0.000696867
0.000842924 0.001164470 0.001326865
0.000844550 0.001176513 0.001339057
-0.002651530 -0.002333790 0.007292664
-0.002997956 -0.006095319 0.010134524
-0.005096817 0.001354617 0.000826958
0.000073783 -0.003955067 0.007871614
0.016951691 -0.008174855 0.001510549
-0.000694297 -0.001188194 0.004035859
0.005047278 -0.005028055 0.002216591
-0.005244546 0.001451912 0.000815455
-0.004729860 0.002172927 0.003734331
-0.004673181 0.002063543 0.003530088
0.005763290 -0.005114359 0.010449900
0.050383713 -0.008052237 0.014501031
0.003889101 -0.007476141 0.004707246
0.015477095 -0.007034116 -0.000019568
0.001098925 -0.002543778 0.007530073
0.003884754 -0.016838651 0.006661461
-0.011277952 -0.021964855 0.018249046
0.004082829 -0.015082995 0.006443911
0.011588218 -0.045108259 0.030836295
0.003344544 -0.015293667 0.005249930
0.002055749 -0.002958344 0.001397887
0.006562174 0.000184490 0.008032531
-0.000048105 -0.009751691 0.000541745
-0.002785952 -0.008072900 0.002370442
0.004080486 0.011409176 0.004319862
0.006825347 -0.008129074 -0.000072327
0.029614875 -0.009415830 -0.002596829
