ply
format ascii 1.0
element vertex 1293
property float x
property float y
property float z
end_header
3.880872011 -1.356445312 2.257696390
-3.026830435 -3.832290411 3.380459785
-0.653884172 -0.048731934 2.212007284
-1.754636645 -1.022033095 5.285564899
-1.872839093 -0.651321054 5.160022736
-1.586372852 -0.654815853 7.302006721
-2.878866196 -1.106763363 4.361321449
-1.703468084 1.147028923 1.982791901
-5.120960236 -0.977793694 4.287601471
-4.706998348 -1.114580989 4.779491901
-4.923673630 -0.579996824 3.743448973
-3.161164761 -4.745026588 5.092115879
-0.422523409 -5.820399761 6.943437099
-1.203512788 -1.466952443 3.409332991
-1.287819862 -1.927910924 3.402957678
-3.682173967 -3.130109072 4.609764576
0.369335175 0.232078791 2.808785677
-0.222995237 -0.003835042 2.595261812
0.081890889 0.208607346 2.539017916
0.356018066 0.290840000 2.422637463
0.370275766 -0.024125801 2.821075678
3.397933006 -0.950027943 4.406825542
3.346271753 -0.828096867 4.307601452
5.784989834 -1.329900742 7.151442528
-3.300011635 -2.288165092 2.147258997
3.498484850 -1.797163248 5.585168362
-0.322035044 0.154973283 2.285013437
5.054103851 -0.389767677 3.810547113
3.667203426 -1.303672194 4.514026642
2.158863306 -4.722657204 6.188789368
-5.866057396 -2.844356775 4.030226707
5.059202671 -6.232582569 9.174658775
-1.471429586 -3.969030380 5.835178852
-1.521718979 -1.584166408 3.955041647
5.369228363 -2.900950909 4.656211853
2.670110226 -0.642612457 5.632884026
2.301448345 -1.840425372 4.513151646
0.216230482 0.346605986 2.485529184
0.202501684 0.383021295 2.193302155
0.192583397 0.496438742 2.482421398
-1.658154845 -4.041757584 5.714992523
-1.474533439 -1.100785255 3.176026583
-4.246475697 -4.535075665 4.530163288
2.190094709 -4.740790367 4.839849949
1.639139533 -4.309031010 6.269556522
1.429789901 -2.004083395 7.473958015
0.219846055 -5.036736488 5.279299736
0.025579199 -4.269024849 4.684060097
-1.467679143 -6.472983360 9.541406631
-1.966123700 -4.353406906 4.342321396
-0.787777722 0.022941435 1.629195690
-2.887622833 -2.838632345 3.162709713
-0.386081994 2.306829214 2.510335445
-0.757976234 -1.024947166 1.393990040
-0.603119731 -0.028898085 1.121423841
-1.012315750 -0.464955419 1.841005802
-2.357232332 -0.306191176 1.381805897
-1.148873568 -1.789746761 1.285816431
-0.047478996 -1.439063549 3.647511721
0.980089605 -0.267837942 1.459933043
0.141876504 -1.069123626 0.860603631
-0.779476225 0.223495364 1.502327085
-1.366641760 1.074281335 1.893594146
-1.183697820 1.002012849 2.151991367
-1.518933773 0.794894993 1.085817814
-1.228986621 0.862895548 1.404714227
-0.873313248 0.955923080 2.392538786
-0.596830308 1.000921249 2.253330946
-0.332993895 0.063120000 0.012402534
-0.496155024 0.008489920 0.000812150
-0.670015275 0.013255849 0.362780929
-1.505202055 0.122684956 1.128669977
0.857558906 0.432953209 0.634494662
0.257181674 -0.033489704 2.383000135
0.887229562 0.352751583 1.160710931
1.024937987 0.908349812 1.237452865
1.028375387 0.845941901 1.694253564
-1.513641953 -0.153457597 1.700432420
-1.257336736 -1.120783210 0.716616750
-0.765986502 -0.285621017 0.305369884
-0.532491922 -0.311152071 0.060364127
2.717862844 -1.411395907 2.305759430
1.013204098 0.860838294 1.432851195
1.021007180 0.900981307 1.362502456
0.779377162 -0.794485033 1.164866447
0.047441289 0.389679015 2.534754038
-0.587644219 -1.850756884 2.615714073
-1.232560158 -1.166734099 2.926213264
-1.007713795 -1.571216822 1.505409598
-1.384092569 0.305885792 1.930524230
-1.903557181 1.262178898 1.507521272
-1.497314572 1.116846085 1.141697407
-1.014865994 0.048837699 0.953527093
-1.553467870 0.088851094 1.405534506
-0.857130110 -0.466863781 0.451017350
-2.637919903 -1.019278407 1.214958429
1.371137023 -0.930312037 1.129472136
-0.562835038 -1.033481359 1.070351481
-0.223903626 0.204079673 1.859736681
-1.452967525 -0.147268772 1.789852500
-0.216729268 -0.297556072 1.807686210
-0.346776247 -0.066710472 2.575193405
0.204398260 -0.052522194 1.751652479
-1.166360497 -0.148611665 2.456716299
1.362008095 0.537735760 1.750478625
-0.789073706 -0.247974023 0.743980587
-2.295408964 -2.147150278 9.922987938
-1.785645485 0.083733000 0.991911530
-2.425171375 -0.632679224 1.017024755
0.153587803 -0.150067568 0.213713408
1.026391029 -1.377411246 1.597337365
-0.835946500 -0.259164006 0.788113058
0.991037190 -1.327645183 1.554767847
0.088864796 0.167501733 1.663934231
1.329789639 0.532949328 1.641584277
1.534531355 -1.984704018 3.102169275
1.701080322 0.551622152 1.358190656
0.597391605 0.443454683 0.337682843
0.056388170 -0.055453993 0.265916288
0.601967514 -2.498038292 2.793339252
-0.998966098 -0.014312041 1.352685094
-1.507435083 0.893340647 1.070183992
-1.178659201 1.011289120 2.156549454
-0.954427302 0.930319250 2.346036673
-0.735690057 1.207085252 2.703250647
-0.827984989 0.084181681 0.048759621
-0.346105009 0.066359214 0.012102437
-0.377470016 0.004268345 0.005132653
-1.040352941 0.080932751 0.688768208
0.892321050 0.692085385 0.716500163
0.671554625 -1.068732023 1.529325366
-1.402376771 -1.409495473 1.500834584
-1.552346230 0.066637963 1.413872361
-1.440964580 1.297445178 1.672880530
-1.394166470 1.347473383 1.789671302
0.875618637 0.051520992 0.754116476
1.060532689 0.281951129 0.849118948
0.981977463 0.827811778 0.945494294
1.014501214 0.832423747 1.423027635
1.021410465 0.891687512 1.355929613
0.109389737 -0.402176857 2.579026937
0.123517908 0.291237056 1.710761070
0.004825508 -2.233697891 2.441941977
-0.157164246 -0.364334345 1.465527415
-0.838887334 -0.040956602 1.582223892
-1.341553092 -1.038961291 0.869455874
1.489329815 1.147117019 0.819439352
0.943179548 0.216845170 0.771436095
1.356466413 -0.906325817 1.088166952
-1.161054492 0.942899823 0.554398775
0.669309914 1.918961406 2.186212778
-0.806995273 2.004732370 2.289769888
-1.589980960 -0.293946564 1.522186518
-0.768476486 -2.161592960 1.458365321
1.350765467 -1.009821296 1.348135710
1.017493129 -0.206070691 2.729884863
-0.785482049 0.107276715 1.386324883
-0.901830554 0.236877441 1.630488157
-1.812657475 0.160776272 1.350787044
-1.405710936 1.369708419 1.804916620
-1.623183489 1.076682210 1.298784852
-0.905620277 0.893913150 2.238589764
-1.189788461 1.035089254 2.142883062
1.053087234 0.222484022 0.806484878
1.323002338 0.437282413 1.446357489
0.900114894 0.190243527 0.710613728
1.556284785 0.167171821 1.878566265
1.512174010 -0.875326633 1.145671368
1.139049053 -1.048353910 1.824674964
-2.341721535 -1.197662234 1.254445195
0.798213065 0.109333202 0.913827121
0.989884138 0.176277831 1.086828589
1.011456251 0.891038895 1.079994440
0.619260609 -1.143531561 2.438132763
-0.822586000 -0.401319385 3.678851366
-1.206600785 -1.302547574 1.232065082
-1.688140750 -1.045193315 1.797661901
-1.519647121 -0.108136222 1.585422754
-1.283268332 -0.077213317 1.444072366
-1.270488858 -0.054871250 1.431043625
-1.635363936 0.854742408 1.159920692
0.756221473 0.012749705 0.451080024
0.585260332 0.698376715 1.751666427
0.333150059 0.081856236 2.452270508
-2.677782059 -3.179965019 7.480894089
-1.017420173 0.140040830 1.478609920
-0.864611328 0.029618422 0.818497002
-1.541852832 0.655641854 1.185968637
1.697436571 -0.365526229 2.035782814
-0.239663690 0.233270243 1.948687077
3.813904047 3.036197424 2.139586926
0.323132098 -0.081812061 2.954227686
-1.250293136 1.816877246 1.977430463
-0.943989396 0.246871278 1.698401690
-1.538738489 0.649159372 1.150601745
-1.625550866 0.888777137 1.152296543
-0.509884417 0.058686357 0.048716072
0.712131917 0.179936334 0.553829312
1.025336862 0.942076683 1.219992995
0.769803703 -0.432295918 0.639574945
2.639909983 -2.712778091 3.624897718
1.130308628 -1.227471709 1.833117127
0.731870234 -0.338416398 0.532112896
1.073000431 -0.698872089 1.213352084
0.105724245 -0.020574071 1.514384747
-0.258184999 0.247333005 2.030222654
-0.167662442 0.338416189 2.571574688
-0.653743327 -0.324519008 0.312714607
-0.689068675 0.009063732 0.026444672
0.974935412 0.138679281 1.138862848
-0.088117734 0.074701741 2.579813957
-0.862493157 0.931240797 2.399602890
-1.594228745 -0.154979572 1.926825643
-1.490687132 -0.069050528 1.692788601
2.139147758 0.235848665 2.617298365
1.282195687 0.889209092 2.192589998
1.181065202 -0.366621822 2.586137533
-0.355174690 -0.084288985 2.594475031
-0.874676168 -0.138427615 1.845280647
-0.213898182 -0.076479621 0.322560370
-0.785482049 0.107276715 1.386324883
-1.359230876 1.090548396 1.904807091
-1.277690768 1.073318124 2.033417702
-1.171420813 0.956773818 0.554799557
-0.698511362 0.016498717 0.441254497
1.112523198 0.017500293 0.728529751
0.866060495 -0.300425321 0.482696146
1.265744567 -1.449739456 1.822128892
1.272833109 -1.371887445 1.776868224
-1.550018072 0.015236103 1.427124262
-0.675424516 -0.367371768 0.342537403
0.198499545 -0.054492228 1.703356147
0.368362665 -1.693945646 0.223453581
-0.077726148 1.268147230 0.573848248
-0.572048545 -0.006347660 1.689120054
-1.395615458 1.360241532 1.783435345
-1.541117311 0.657530189 1.178953052
-0.878891408 1.506933451 3.105785370
0.114662886 0.957669497 1.023815155
0.142520353 1.046144128 1.181682229
0.132147670 0.947638690 0.438980728
0.990202129 0.999611139 1.108398318
0.335609674 -0.152353913 0.241601095
2.103339672 -1.332452774 2.321074486
0.787422121 -0.135610268 0.440485656
0.698200166 -1.431567788 2.289970398
-0.340738088 0.066273354 2.587122440
-0.260419279 0.270798236 2.103914022
-0.966271579 -0.157249346 2.018624067
-1.913390398 -0.191675454 2.286929131
0.012596396 0.065615952 2.563921690
-2.146273136 -1.031607032 1.486986041
0.922613442 -0.548953056 0.780485094
1.741822481 -2.618797064 6.372854233
-0.026943840 2.304450989 1.122961044
0.057851415 0.819288254 0.397979409
-0.813544512 0.940396607 2.423658371
-0.765624583 -0.000172852 1.327899694
-1.101596475 0.141531780 1.603913426
-0.825360775 0.111704066 1.486485839
0.789470971 0.163488135 0.662468851
-0.083599657 2.829723835 1.183303237
0.102007240 -0.510558486 2.590722084
0.055099688 2.396412849 2.057392120
-0.929761827 0.151473820 1.818083167
-0.969463468 0.250209689 1.773549914
-1.480211020 -0.129908308 1.593832016
0.964250743 0.809579432 0.887058139
2.176667929 0.490435779 2.381433487
-0.287433147 -0.057334486 2.183141232
-0.532974541 -0.011880131 2.246478319
-0.370753318 2.223789454 1.932950258
-1.552916408 0.144895837 1.146571040
-1.483560801 -0.437203377 0.445856720
0.352842242 0.120256945 2.331163168
1.059559464 -0.650310397 1.337971807
0.893127203 -0.496965587 1.073244333
1.198486805 -0.973537624 1.713113546
0.153025374 -0.155319408 0.222260624
0.114920132 0.251802027 2.036270857
-0.045792606 -0.096148260 0.277739793
-1.260148764 -0.084221415 2.635455132
-1.835175276 -0.393849254 1.724996686
-3.308481455 -0.643911421 3.018499851
-1.030206561 1.685188055 1.932320356
-0.717504621 -0.167349666 0.154747784
-0.195537835 1.139812708 1.266031623
-0.719102621 0.002645660 2.055844069
-0.856567740 0.828182578 1.061053753
-0.736377239 1.190931678 2.616414309
0.114995956 0.978797913 1.041634440
-1.938944340 -0.870644689 1.155727863
6.422881603 -6.655519962 11.608336449
-0.229520962 -0.171345741 0.268144011
-1.088395715 -0.177214384 2.248399734
0.770526826 0.129920110 0.576176286
2.895572424 0.683654547 3.220998526
-0.934837401 0.134145930 1.360197306
-0.614412785 -0.015060066 2.542098761
-0.449461371 0.092184268 3.084973097
-0.462505788 0.241225481 3.159665346
0.036721721 1.599406838 0.770736575
-0.182815835 1.410860538 0.561308205
-1.771691918 -0.157804444 1.705673337
1.027105808 0.980621338 1.251695752
0.241166919 -0.363272041 0.447161794
-0.967959285 -0.201464757 1.382218838
-0.053923644 0.264106303 2.161390543
1.727056026 -1.023737669 2.115613937
-0.082244210 0.076864459 2.578927755
-0.284655750 0.118687533 2.162088633
-0.266593575 0.132330850 2.586357594
0.320020199 0.202108428 2.422340393
0.323666006 0.056678440 2.459143877
-0.135676607 0.085123315 1.661694765
-1.101848841 -0.084689572 2.278139353
-0.845595121 -0.035276003 1.600433230
-0.908180952 0.224469557 1.337160110
-1.930085540 -0.749946773 1.322442174
-1.979294777 -0.860377491 0.897904813
1.218675971 0.383019149 1.324184895
1.210385084 -1.206753254 2.033578396
0.116472363 0.326006562 2.519892931
-0.190586880 -0.077954084 2.567481279
-0.217747211 1.089879513 1.182962656
-0.994016051 0.265184104 1.806209207
-1.495905995 1.176235437 1.178655148
-1.555333257 0.056046478 1.373479724
-1.867281675 1.253167033 2.164855480
-1.537492514 0.146932483 1.134191990
-1.047689438 1.713958740 1.962685466
-0.838584244 2.059314728 2.353334188
0.990653276 1.157074213 1.577801943
1.026824594 0.972543001 1.250722528
1.206974745 0.777280867 1.986789346
0.471432209 0.207707018 2.845699787
0.087018661 1.029243350 0.962680519
0.096924871 2.205295324 1.847245455
0.131582484 1.056653142 1.133041978
-0.922309756 0.925814390 2.366197109
-0.285935700 1.425994277 2.962046146
-1.642744899 1.284629226 1.304924607
-0.934251189 0.034077659 1.624764919
-0.249647260 1.335846663 1.104916692
-0.312624693 1.587361217 1.761302114
-0.478001714 2.738203764 1.647337914
1.189042568 -0.478932083 3.196206570
2.064593792 -1.624974489 1.755278468
0.022507442 -0.124849916 0.188877836
-0.784209013 -0.667608738 0.149460763
-1.601922393 -0.762730718 0.774134278
-0.644960165 -0.049761083 2.158373594
-0.886752486 -0.041378610 1.678274870
-0.161561191 0.267660230 2.229571104
-0.308099329 0.228884742 2.229281187
0.240191445 0.065590896 2.941750765
0.331043214 0.221145004 2.441695452
0.005481925 2.353654146 1.552214384
1.193091393 -0.091145098 0.920465946
0.347004145 0.125388950 2.353310823
-0.016848136 1.812412977 1.759617448
0.031592913 1.541962028 0.737633467
-1.613036752 -0.064148158 1.885306954
-1.395521164 -0.856786132 0.984868228
-1.503630161 -0.844540775 0.934780896
0.063721091 -0.423994571 2.178308249
-0.353368253 -0.080231652 2.569526434
-0.113547213 0.661922514 0.661882997
1.886650324 -0.334245175 1.513808727
0.218499780 0.342612058 2.483236790
0.122925334 0.314985722 1.911580443
-0.150016651 1.109119177 0.996053934
-0.262267083 -2.302933455 1.429050684
-0.715661764 -0.613903165 0.139502853
-0.224102840 -1.316951036 0.779539824
0.953964651 1.217327952 1.796648622
0.127933130 0.946867287 1.014964223
-0.100009851 1.896755934 1.782570243
-2.187368631 -0.928027749 0.975260973
0.261603534 3.039237738 2.538388729
0.044053402 0.533215642 0.215916321
-2.373906374 -1.118918777 1.625357032
-1.222344160 -0.459993899 0.460456550
1.153129101 1.017103195 1.992671013
0.245589852 -0.063713469 0.444977403
-0.860679090 1.378045201 3.062230587
0.155158043 1.587938190 1.003064513
-1.214724302 -0.552055955 0.512184918
0.060502276 0.793044984 0.347977281
-0.276102662 1.875485301 1.524959803
1.281562090 0.203250170 2.123302937
0.816946685 1.777018547 3.923052549
0.483990908 0.029211640 0.203708082
-0.062497944 1.258238077 0.739313126
-0.034685012 2.343325615 1.136591673
0.025830284 0.056040511 0.124487311
0.800432563 0.828737319 2.031606913
0.151161417 1.536775947 0.968899667
1.033905864 0.161506355 1.712894559
1.109684587 -1.129855514 1.529115081
0.326873571 -0.065384977 0.294829577
0.111887947 -0.032546595 0.226223782
2.383851051 -0.076141112 1.630602837
0.110677674 -0.032858048 0.226551712
1.158221602 1.056765437 0.548854887
0.094716646 0.126155406 0.135355547
0.115612194 -0.032236915 0.219755650
0.186080545 0.086253293 0.288153261
0.053911213 -0.067574374 0.313965261
0.024391541 -0.084569067 0.308291405
0.037313346 -0.088169195 0.251295835
0.040064227 -0.089009285 0.263276219
0.515439451 -0.689682066 0.937560856
0.020731650 -0.128260016 0.616428494
0.138613939 -0.050721109 0.267941505
0.119966380 -0.071087405 0.267668039
0.072973408 -0.104084909 0.399801493
0.070992827 -0.103376083 0.400024742
0.094043747 -0.019239217 0.201541096
0.132761687 -0.061943647 0.253420800
0.341276973 -0.140700787 0.234128878
0.085497469 -0.131362706 0.243988648
0.519496620 0.009598565 0.312801152
-0.123769335 -0.094065987 1.390775204
0.111068889 -0.018320380 0.232554644
0.111434788 -0.017930795 0.231733158
0.023709146 0.060682636 0.380251914
0.209178418 -0.040148128 0.192767099
0.562660396 -0.022861736 0.374865264
-0.062483132 -0.407937676 0.261580855
-0.061719861 -0.404358119 0.259014338
-0.141237125 -0.088074468 0.179327011
-0.139417067 -0.087515600 0.178107277
0.106860988 0.235653132 0.512109816
0.056894001 0.471514881 1.768340111
0.107990876 0.229623660 0.509721696
0.097195551 0.075076312 0.223856792
0.114004023 0.161708817 0.352493048
0.112449802 0.209151521 0.477970600
0.112340890 0.018532988 0.322649658
0.368250340 -0.013308176 0.436562032
0.098658517 -0.009795751 0.277159035
0.104257084 -0.010775376 0.246395350
1.908474684 -1.198256969 1.165841699
-0.055411510 0.929453015 0.365964293
-0.044608578 0.229075566 0.172047436
0.234315842 0.062372547 0.206369847
0.008327331 0.284131020 0.256378919
0.774316430 -0.766909242 0.597177565
0.095661379 -0.000916756 0.239174321
0.095479839 -0.002880003 0.255818695
0.149677262 0.022058969 0.238982126
0.093304612 0.054399379 0.227424398
0.116396122 0.036482692 0.265854657
0.130000025 0.029335469 0.261101574
0.128487989 -0.047245834 0.480337769
0.114773691 0.035051610 0.262580812
0.131785408 -0.047096096 0.491573542
0.087697811 -0.012876389 0.258737653
0.226808861 -0.372909814 0.296323180
0.224390581 -0.363592476 0.287822962
0.013206064 -0.090304136 0.688756227
0.828684509 -0.291679054 0.510245562
0.094250068 -0.062205940 0.385550171
0.119817033 -0.003461047 0.266997099
0.106197312 0.024681661 0.313161999
0.106836304 0.015931943 0.282612145
0.119689919 -0.031459086 0.281208456
0.089305222 -0.027162328 0.492625058
1.087848186 0.407479882 1.170750141
0.088281743 -0.003565498 0.583200634
0.352424651 -0.163095996 0.475174904
0.330246806 -0.411733657 0.519054413
0.344901323 -0.439131647 0.550417304
0.386830389 -0.285279453 0.380873740
0.900688469 0.181603432 0.771995008
0.360670000 -0.241321772 0.463498503
0.128593102 -1.396187305 1.285477161
0.407606870 -0.261878818 0.321032494
0.419507474 -0.170837849 0.282013714
0.433216274 -0.368261546 0.492879629
0.276693374 -0.848398805 1.014423609
0.173538759 -1.575429201 1.402894855
0.210133821 -0.199175477 0.381548196
0.379431665 -0.078020282 0.643122256
0.334851503 -0.485218704 0.871375024
0.207162768 -0.194290563 0.378230006
0.292938024 -0.535687566 0.868874431
0.100992277 -0.007603276 0.315013647
-0.107333340 -0.017936096 1.594638467
0.049143560 -0.007074730 0.425478846
0.045470696 -0.009181916 0.434725523
-0.341396600 -0.159831047 0.188960031
0.069718957 0.018279241 0.655749023
-0.247177780 0.303256989 1.323353887
-0.183008432 0.104630701 1.222464442
0.076565921 -0.031213606 0.306864440
0.096658319 -0.043388139 0.291567862
0.061822481 -0.014533828 0.342685282
0.101957932 -0.046893176 0.300373614
0.083090737 -0.044615574 0.869076550
0.059235699 -0.016162455 0.344699353
0.122084372 -0.047520988 0.324023783
0.587949574 0.335404128 0.477583885
0.598173022 0.348952264 0.484128654
0.093259789 -0.010215881 0.317953527
0.082102492 -0.011007763 0.407398254
0.092699915 -0.010830740 0.318619519
0.085287638 -0.009281348 0.392925262
0.084835626 -0.009459460 0.396220535
0.412174702 0.199778855 0.388334483
0.482982486 -0.293414652 0.327041835
0.124842577 0.042235564 0.263462603
0.078811258 0.017104050 0.302213848
0.117008582 0.036016423 0.297907740
-0.078713663 -0.091558874 0.971184850
0.125846595 0.022008596 0.341112167
0.086912215 -0.307750314 0.540807903
0.036055192 -0.462484628 0.297744870
0.073965132 -0.216280386 0.772365749
1.156158566 -0.334204912 0.644565344
0.128643185 -0.062590845 0.270751983
-0.241989434 -0.247484416 1.067648411
0.131515920 -0.003375996 0.304029167
-0.062325746 -0.131863087 0.750603855
0.094194688 -0.015141102 0.344381422
0.086200126 -0.014431151 0.400153697
0.093199015 -0.014963536 0.351216942
0.086798832 -0.015606991 0.390483141
0.101337180 0.229686290 0.291141719
0.103047207 0.224334970 0.286795735
0.516283512 -0.202668533 0.341387033
-0.037765805 -1.212051511 0.496046573
-1.599879384 0.107023641 1.374284267
1.156815767 0.966250658 1.073957443
1.076362014 0.872659206 0.988073885
1.118638396 0.917484403 1.031596541
0.051987682 -0.014256929 0.449070305
0.016497128 0.421852410 1.071712613
0.034675557 0.110585161 0.515520453
0.000712637 0.097388990 0.715074062
-0.029780645 0.188055143 0.919023156
0.047510471 0.015709134 0.469194859
-0.025720466 0.199045926 0.897638977
0.007131188 0.090349630 0.685023904
-0.022552129 0.202142075 0.904417157
0.002596864 0.092266276 0.691146910
-0.024091370 0.139990151 0.858261347
0.009025613 0.086569086 0.674266636
0.091734372 -0.014282059 0.332239270
0.098403603 -0.017907830 0.327974916
-0.377036273 0.265190721 0.269301116
0.196220428 -0.276653558 0.714339554
0.195988238 -0.279924989 0.719527304
-0.010072188 0.009850141 0.702118278
0.154598445 -0.191250309 0.766630530
0.079846002 -0.009716004 0.417661965
-1.399040222 0.005652029 9.618826866
-1.952549696 -0.042873222 12.762636185
0.053865343 -0.009015004 0.582872272
0.084031574 0.020121193 0.364392340
0.156131715 -0.045518972 0.781449378
0.119814172 0.003739362 0.432904363
0.178357303 -0.090083398 1.376827002
0.111711554 0.021179644 0.360950112
0.112609558 0.011350865 0.393511057
0.197970703 -0.039491825 0.918485999
0.354143888 -0.549477160 0.415971786
0.349690229 -0.541364968 0.410998940
-0.127542466 0.029876985 1.637563467
0.113566376 -0.095633917 0.501327097
-0.595271468 -0.693683088 0.272440016
-0.603546917 -0.701166451 0.275260836
-2.023034573 -3.445500612 0.236655563
-0.125398040 0.108689874 1.007384181
-0.012029576 -0.104399316 0.657729506
-0.070965141 -0.137419432 0.780618072
0.070384778 -0.236621588 0.294727832
0.069613367 -0.241192147 0.297166944
0.091536537 -0.064487994 0.400615007
0.071753480 -0.071925238 0.435763210
-0.521804929 -0.044849664 0.311233550
-0.342814505 -0.083878629 0.853132546
-0.196159244 -0.083884910 2.280711889
0.082085788 -0.009438875 0.386243135
0.083814532 -0.010068824 0.378004074
0.083502881 -0.009977118 0.377828270
-0.059905939 0.007954831 1.241152287
0.202930287 -0.222207755 0.304188937
-0.005143309 0.120219581 0.803043485
-0.261795968 0.239742741 0.272326946
0.202467650 -0.250023395 0.309720874
0.214940146 0.260104209 0.669742107
2.019179821 -2.252858400 1.890013814
0.009861560 -0.037587613 1.066097021
0.076439381 -0.011743218 0.460836440
0.075957373 -0.011347785 0.461702615
0.132216945 0.012603147 0.351004839
0.081838265 -0.006843234 0.349646807
0.188718215 -0.183167994 1.190644026
0.095691659 0.014465274 0.579218626
0.688190401 -0.821637511 0.885525763
0.087713622 0.024060730 0.426464379
-0.001961624 -0.017868239 0.452051491
0.015702801 -0.021878459 0.378718048
-7.057423115 1.991720796 12.602557182
-0.002494049 -0.016032595 0.454136848
-0.002614453 -0.015355371 0.453499466
-0.275834501 0.082099035 0.825581253
0.082252823 -0.021684900 0.446300268
-0.018085372 -0.032458879 0.889396966
0.049722124 -0.057296768 0.409431934
-0.303151637 -0.069234639 1.078060746
-0.083817616 -0.059611730 0.650439322
0.471298814 -0.328490734 0.523316145
-1.030765533 0.083910570 0.994302869
0.019045707 -0.034878839 0.546269178
-0.331121296 -0.574644208 4.084382057
-0.377092779 -0.097949795 2.252768755
-0.692365944 0.664049208 0.362380207
-0.072929941 -0.580987275 0.353367895
-0.224560514 0.928936005 0.989144564
1.760406494 -0.608885646 0.966650307
-0.814427912 0.654595792 0.525185585
0.067818031 -0.007392364 0.442243218
0.066912062 -0.007701031 0.446434498
0.147959620 0.051471144 0.467747808
0.337772727 0.103193067 1.157104969
0.111102566 0.033192270 0.449788004
0.317447513 0.098344155 1.092672825
0.091466255 0.012913075 0.428424031
0.298802793 0.088222139 1.015086651
0.090478219 0.014952584 0.430653930
0.383378327 0.113736756 1.399271011
0.290010571 0.092096493 1.255666494
0.306715608 0.102571763 1.093571424
0.298424751 0.105254039 1.316058755
0.132762328 0.040374801 0.548074901
0.140913218 0.039909285 0.585162401
0.408562899 0.139493853 1.524028063
0.139534339 0.038963214 0.584464908
0.058194380 0.015961269 0.535975754
0.411686152 0.846705139 3.728026152
0.110718258 0.135709122 0.877536833
1.247735381 0.739506721 0.607862592
0.188845068 -0.525990963 0.529150128
0.038533509 0.149660289 0.353740662
-0.948518217 1.973047137 1.845318794
-0.039557695 0.034596108 1.312156081
-0.785181701 -0.290923417 0.538197458
-0.779569328 -0.288392901 0.534218788
-0.040835343 -1.073184371 0.435568422
-0.045036882 -1.853669167 0.521715522
-0.851853251 -0.316805840 0.556143701
-0.091508850 -0.247412711 0.835652232
0.096559405 -0.069358826 0.457961023
0.066739745 -0.093168467 0.532702804
0.186168373 -0.525550485 0.523629844
-0.116126992 -0.622338414 1.926781535
-0.121645674 -0.648853302 2.004720926
0.059546046 -0.164799362 0.803060472
-0.134837717 -0.697132349 2.147638083
-0.275363952 -0.325008303 0.405770153
0.129215941 -0.020509133 0.468700707
0.122408278 -0.045380689 0.530681849
0.420565009 0.129364684 0.503581524
-0.754260361 -1.005048990 0.813266098
0.050211731 -0.040706661 0.389346659
-0.088701665 0.174144983 1.072669625
-0.184779450 0.256570518 1.999819279
0.027218780 0.012266398 0.573139608
0.046337090 -0.006906817 0.496412605
-0.015468258 -0.022236239 0.790833056
-3.086818695 1.881937027 3.122935295
-0.294146955 0.267882556 0.334066868
2.311614752 1.031322956 2.903954506
0.201037303 -0.568217516 0.649945438
0.797217190 -0.831179976 0.976504207
0.113106780 0.029566934 0.447114706
0.148461580 0.034804095 0.511743188
0.153147459 0.017019950 0.467007309
3.781819105 -2.453387260 12.149342537
0.155856073 0.021480210 0.472488642
0.336084872 -0.096339881 1.196090817
0.153899223 0.016950395 0.487220168
0.206125274 -0.012139338 0.663974345
0.119648233 0.037387121 0.393745303
0.157340601 0.021411873 0.471086413
0.326571703 -0.089345664 1.192738175
0.206069648 0.002330366 0.563783526
0.304727942 -0.079191662 1.124292970
0.159289017 0.023723586 0.471917629
-0.593421459 -2.903819084 3.605396032
-0.501879096 1.423779964 0.690295100
-0.617716074 1.788036346 0.789385378
-0.383641809 1.099056005 0.618053734
-0.210287571 -0.371135980 0.838545918
-0.510084093 -0.673221290 1.079196811
-0.068067491 -0.242888004 0.547807395
-0.487772405 -0.654141903 1.054601312
0.056534454 -0.012501371 0.746326685
0.076492056 -0.110405877 0.459009767
0.016113635 -0.178284585 0.554454982
0.046080757 -0.400848150 0.473905206
-0.192764878 -1.505219579 1.477775812
0.287982106 -0.421575069 0.769133031
-1.771977901 0.131982028 0.078177564
1.650757790 -0.528823316 0.848732054
-2.749264002 0.611257970 0.156410486
-0.834860027 -0.537834942 0.506738305
-0.006768344 0.084531829 0.460751653
-0.021021888 0.108353771 0.488034368
-0.076938868 0.111455418 0.663089097
-0.068352826 0.120574310 0.702456713
-0.078741550 0.111512169 0.664607882
-0.066756964 0.119253144 0.699362755
0.070982955 -0.016531138 0.477100819
0.035911568 -0.018346913 0.658601463
0.060530588 -0.019073825 0.547248185
0.037753925 -0.016775368 0.657155156
-0.079505377 -0.142876238 0.477880031
-0.033537615 -0.011145527 0.526265979
-0.578174055 0.505362451 1.160777807
0.317429900 -0.314947367 0.544871867
0.053418670 0.043183230 0.472722232
-0.022810619 -0.312219083 0.510528028
0.206440151 -0.012955106 0.671727955
0.210449979 -0.007937875 0.680345774
0.137934282 0.125278577 0.562758744
0.063290149 0.017100643 0.525160074
0.232238129 0.007128988 0.829926789
-0.363327652 -0.465061039 0.830851436
0.452546090 -0.489635706 0.658151031
0.742560983 -1.011252642 0.808329940
0.010453543 -0.053938154 0.695872366
0.121212907 -0.016814118 0.502465487
0.009526485 -0.063009456 0.710067391
0.076404333 -0.073256753 0.467110425
0.052332949 -0.087227784 0.498190194
-0.046517450 -0.158905074 0.656037390
0.071548998 -0.010235648 0.517252803
0.086823829 -0.035765495 0.549625754
0.396872073 -0.398081899 0.615495563
0.120490760 0.504208922 0.568193018
-0.016263014 -0.048753548 0.813587427
0.081026003 -0.025433261 0.557135165
0.032484449 -0.034653589 0.993935287
0.020283146 -0.009164639 0.516731024
0.691467643 -0.244263679 1.463957906
0.282630324 -0.411322147 0.751346052
-0.465612054 -0.059649490 0.625683665
-0.206248194 0.391182154 0.814663112
-5.558120251 4.999820232 6.362544060
0.301039726 -0.026285006 0.573642194
0.079245098 -0.095286608 0.504251957
-4.649723530 -2.657769442 0.818009257
0.016857084 -0.023769056 0.731061041
0.040093977 0.029309327 1.033066750
0.052107863 -0.026319176 0.664675534
0.124578036 -0.029427033 0.723170102
0.051419754 -0.027451349 0.666043818
-0.733528256 0.400684923 0.344882250
-0.138992101 -0.012093316 2.021009684
0.019318521 -2.087931871 0.935603857
-0.070708692 -0.189839497 0.469047457
0.404936612 0.872617066 0.905579746
0.513571084 0.964963973 3.011864424
-0.187303960 1.163869619 0.516761959
0.088049032 0.472187698 0.528797209
-0.256494790 -0.673926771 0.866854191
0.166928470 0.717750490 0.636637509
0.084314652 -0.447081864 0.683479846
-0.361229271 -0.959713340 0.509397388
-0.385406077 -0.993687630 0.516084313
0.423252046 -0.605133951 0.621992290
-1.269267082 -6.241369247 1.156692863
-0.730692744 0.921459973 1.603553891
0.398620367 -0.495853901 0.718129098
0.052939948 -0.012916938 0.610153675
0.006188134 -0.056381654 0.617307186
2.128374338 0.118806697 1.994187474
0.052290693 -0.021544239 0.646989942
-1.770491004 -2.682068825 0.971655786
-0.563985169 -1.100078821 0.714110553
-0.536777258 -1.060522318 0.697821140
0.180974469 -0.481842846 1.150289297
-0.210460439 -0.065456219 1.573829174
-0.303084046 2.826260090 3.123513222
-0.018494040 -0.030242851 1.111326814
0.044596553 -0.021974824 0.655321479
-0.610728741 0.492743671 0.800248563
0.015109077 -0.006478568 0.723367691
0.022472119 -0.012638402 0.730326116
0.015630294 -0.006266557 0.723041654
0.054233760 -0.033344854 0.869343281
-0.079195432 -0.044164497 1.011870623
0.024777854 -0.017682239 0.730325103
0.007592869 0.021436516 0.714351773
-0.459796101 -0.050873164 0.832599580
1.221992254 1.463958740 1.239420652
-0.270231515 1.058908701 1.180297852
-7.522828102 0.384633869 0.205603898
-0.325907350 -1.102319598 0.769158721
0.053308014 -0.011763305 0.624864280
0.053307533 -0.011833411 0.623999000
0.046431735 -0.016245373 0.666096449
-0.175310791 -0.880461335 0.777676880
-3.968700647 -2.564585686 1.255659819
-0.198694989 0.117696248 0.511151731
-0.199331775 0.117089219 0.511492312
-1.153114796 -0.203966513 0.485514551
-1.557126045 -0.688311994 0.702406585
-0.016623041 -0.005321882 0.981592774
-0.255626082 -0.246437967 0.593544662
0.056903005 -0.021562353 0.613590598
0.029606052 -0.030502262 0.722918510
0.849510312 0.707000375 1.471516252
-0.173091441 0.221504405 0.694557965
-0.187139750 0.235245466 0.715356469
0.085140988 -0.033114575 0.625194430
0.029476142 -0.042446930 0.875085711
-0.170120910 0.354624957 0.675386965
1.426506281 -1.404134750 0.992577910
-1.210554242 0.997189581 0.544216454
-1.182901263 0.972060263 0.539764762
0.032465357 -0.005342649 0.701472938
0.040973127 -0.015199527 0.603240132
0.058640271 -0.035176836 0.961170256
0.131906807 -0.045221705 0.738441527
0.086508304 -0.007029895 0.721691668
0.128738835 -0.066570155 0.919221520
0.126857951 -0.064468741 0.909521520
0.126126155 -0.064859375 0.912793875
0.096203454 0.002672902 0.647395790
0.078119315 0.010534920 0.646787643
0.545440316 -0.245080337 0.901277125
2.090676785 -2.029070139 2.812055588
1.095496774 3.940171957 1.836912036
-0.057022829 -0.977364004 1.128211379
1.235720038 -1.689196706 2.186689377
0.312833160 0.028022652 0.709696531
0.313418478 0.028855499 0.710662723
0.293035001 1.157135487 0.933073103
0.064965352 0.305709809 0.644397020
0.144482255 -1.302948475 0.797536016
0.140673012 -1.346832752 0.815320671
-0.544666350 0.054081865 0.670476913
0.048495110 -0.017435763 0.668670058
0.022608956 -0.025439801 0.800106227
0.035328362 -0.023945220 0.725339770
0.036018260 -0.023236077 0.724861920
-0.045731705 -0.087286927 0.675236821
0.015701979 -0.064496510 0.712684751
-0.094209403 -0.088032871 0.752915919
0.032106839 -0.068834521 0.640584528
0.050860919 -0.066454910 0.628414512
0.018531926 -0.064628549 0.658598125
-0.098570541 -0.090133719 0.796577454
-0.529151976 -0.176199749 1.538046122
-0.080244333 -0.085051149 0.856554806
0.067719281 -0.055790521 0.618706286
-0.086741209 -0.089773707 0.872600555
0.000365455 -0.070317231 0.684526563
0.048118319 -0.018411379 0.668622196
-0.745489538 -0.346776575 0.872222722
-0.110862240 -0.244835764 0.695099711
-0.105776340 -0.241644979 0.686684906
-0.017554402 -0.198946700 0.617738962
-0.685021818 0.804762244 0.996245563
-0.314245760 -3.144869804 1.906068921
-0.279205322 -2.801799297 1.701103687
-0.270752877 -2.745681524 1.667471886
-0.414947897 1.758931160 1.904473066
-0.251105905 -3.630137920 2.235160589
0.037807617 0.060650304 0.711356699
0.017162217 0.015957003 0.699467480
0.051512845 0.054589137 0.671374559
0.012149161 0.004252458 0.639930725
0.016526883 0.016641475 0.700821102
0.025585789 0.068204530 0.824374616
0.028237263 0.063504413 0.820996106
0.027511749 0.063708454 0.821697891
0.011291455 -0.015066380 0.643343925
0.006142907 -0.008350772 0.946210623
0.039266203 -0.016210126 0.688957453
0.372593969 -0.505582571 0.717186928
0.027071061 -0.016474577 0.778675973
0.039846037 -0.015999274 0.687935889
0.012498477 -0.012780615 0.885408282
0.027267264 -0.015589455 0.779097319
-0.034508735 0.056375843 1.069395900
0.237531096 0.896079242 1.058822751
-0.091230460 -1.310193300 2.454028368
-0.052575495 0.119294941 0.697673857
-0.032472558 0.205041200 0.686259747
-0.003155441 0.281883597 0.733387470
0.376462877 -1.870903730 0.845681131
0.080719039 -0.035573892 0.690742433
-0.037491791 -0.203762546 1.372983456
-0.023042293 -0.193454295 1.323752999
0.025681928 -0.213447228 1.031611562
0.063572340 -0.027299140 0.719684660
0.077248156 -0.088338375 0.763252974
0.085112482 -0.050858513 0.695897758
0.063191727 -0.055935085 0.778032541
0.142327547 0.165339589 0.708261549
0.038523119 -0.012375996 0.683301330
0.029917214 -0.021365011 0.790503263
0.043353852 -0.016014969 0.693104029
0.042191260 -0.015337177 0.689211547
0.030113569 -0.020402635 0.793427289
0.030083740 -0.020908937 0.792774379
0.610397458 -1.820459008 1.003169417
0.019901412 0.029763049 1.023004532
0.088198207 -0.411108285 0.842212975
0.087695025 -0.043824345 0.756140232
-0.324701220 -0.071228437 1.945149302
0.715777874 -0.338974208 0.699762106
-1.094321609 -0.371314347 0.972557127
-0.668647885 -0.766435981 0.898374319
-0.896601439 -0.866204143 2.071746826
0.213113904 -0.057428658 0.731055617
0.270967394 -0.155147165 0.741246879
0.324340403 -0.426208317 0.803265452
0.236199811 0.242146626 0.709664226
-0.314538836 0.141152069 0.564297497
-0.315163225 0.146851152 0.566577435
0.198705256 -0.016427888 0.722556829
-0.478560299 0.094311796 1.014220953
-0.485538125 0.096647881 1.022249818
0.226095736 -0.512267709 0.690683961
0.031588450 -0.026107159 0.774475515
-0.032721531 -0.034052264 0.775791407
-0.106898896 -0.004668476 1.228578210
0.035008002 -0.044130910 0.688551724
-0.006679247 -0.024134858 0.756597757
0.053874608 -0.048073139 0.685680687
0.046209678 -0.057769336 0.648281872
0.020832093 -0.050530110 0.697439194
-1.168086648 -5.673383713 3.170179605
-1.410580754 0.400978297 1.080232978
0.030163422 -0.026025312 0.778706551
0.325709850 0.205209702 1.021563768
0.328804314 0.201559201 1.020659566
0.113760464 0.021429392 0.893238485
0.066583820 0.009141189 1.062010884
0.082926102 0.033475127 0.754679382
0.104482673 0.035108797 0.809825957
0.086662449 0.030222699 0.791770458
0.086994708 0.030560464 0.793887317
0.082923777 0.015182042 0.909033597
0.077072948 0.033272732 0.755126238
0.102538511 0.032108005 0.806787193
0.077934258 0.029977672 0.756929874
0.042675484 -0.058364488 0.652261376
0.037074458 0.034920432 0.689101696
0.011449805 0.006190005 0.645124376
0.017511485 0.032608584 0.751642942
0.084550634 0.179286167 0.773275077
0.221257031 0.314327568 0.998404026
0.220019430 0.306641698 0.985938668
0.223358750 0.319549441 0.916958272
0.965793729 -0.330256701 1.074107528
-0.026455456 -0.257842124 0.989802599
-0.010991396 -0.225530893 1.052715778
-0.235221103 -0.682896674 1.810510993
0.006218963 -0.213796347 0.938072026
-0.027213655 -0.265127778 1.001671672
-0.227532119 -0.616928577 1.720415354
0.040687528 -0.156965554 0.679168344
0.041320801 -0.126870155 0.815304577
0.073687620 -0.073626839 0.707007229
0.061337549 -0.088621780 0.758686483
0.084767342 -0.033019111 0.686746955
0.084815331 0.010351699 0.649677396
0.023993576 -0.195373997 1.001605034
0.074770890 -0.068922415 0.708974481
2.214957952 0.109112076 1.522697449
-0.332567364 -3.886252880 4.217373371
0.013263810 -0.200040936 1.273637891
0.068394572 -2.126766682 1.417764783
-1.926371217 -0.314029962 0.985451758
0.184470996 -0.154451609 0.836766601
-0.498212218 0.277595490 0.710468471
-0.388798326 0.306764573 0.971193790
0.411899984 -0.603079796 2.291326284
0.259706080 -0.435524464 1.365203738
0.261481225 -0.436220616 1.366105795
-1.108448029 6.176839828 2.112089634
0.053426199 -0.025802221 0.695443571
0.018473074 -0.043336213 0.890040338
-0.005227434 -0.036787249 0.648823857
-0.392014295 0.225763515 1.359124780
-0.047885820 -0.003787341 0.717558384
-0.231024966 0.214053407 0.932175219
-0.067631602 0.012285363 0.779866576
-0.019259583 -0.045408811 0.670646310
-0.615765929 -0.355142504 1.015501738
0.852953315 0.129778519 0.901230156
0.192599565 0.056585412 0.866028249
0.188956261 0.060735654 0.879973471
1.344173908 0.297249109 1.522707105
-0.572789729 -0.532553852 0.646018505
-0.027518652 -0.123222120 0.846819460
0.071615890 -0.047491468 0.755697668
-1.767669797 -0.689260542 1.158971786
-5.645840168 -4.666161060 0.744764507
0.480581224 -0.736717463 1.771840692
-1.788728952 -0.696664810 1.171741486
-0.215042830 -0.195539922 1.203797102
0.044391911 -0.065150835 0.791631579
-0.205299646 -0.186955214 1.274990797
-0.041523922 1.950664639 0.936885118
-0.487894148 -0.106054612 1.188076019
0.041231629 -0.782783985 2.206613541
-0.305002034 -0.479020000 0.879615724
-0.013651906 -0.098925173 1.213087559
0.022948980 -0.014151844 0.804295182
0.194846272 0.585495830 0.955661535
0.413526833 0.438508481 1.344336271
-0.489370793 -0.902978480 0.971885264
-1.202337027 -1.581549644 1.425035596
0.271533489 -0.054556422 0.785601676
-3.570568085 1.632289171 6.099513054
-0.164896727 -0.129703730 1.286160111
0.046857473 -0.082844876 0.739081144
-0.132116720 0.382893264 1.021157146
0.019898538 -0.029067421 0.875930488
0.002704843 -0.037045013 1.011882305
0.025447888 -0.024939783 0.808424890
0.383758575 -0.546680868 1.158506751
0.026441660 -0.025187908 0.808841407
0.036749795 -0.016533319 0.797709525
0.015709633 -0.011053074 0.985501349
0.015388744 -0.011136400 0.983419418
1.103167415 -1.177426219 0.993136346
0.428991944 -0.783796966 1.105283856
-0.006591009 1.241419077 1.714442492
0.439282775 0.721370161 1.072524786
0.730150163 -0.656937182 0.896862626
2.434050798 1.944951653 1.487186909
0.394413620 0.606087208 0.984036207
0.004003423 -0.040102512 0.819777012
-0.002223421 -0.040413830 0.861245096
-0.037885379 -0.065765269 1.064820409
-0.322428823 -0.088998899 1.707198620
-0.007370088 -0.020847464 0.809185147
0.140830889 -0.120188929 0.806611598
0.570146203 0.280435503 0.940695345
0.016141715 0.005304276 0.828383088
0.029856564 0.014450157 0.764327824
0.016033486 0.001021192 0.822268248
-0.138115466 -0.273558527 0.949924648
-0.732596636 -0.469186574 0.803680241
-0.882033587 -0.967090070 1.453973055
0.833124876 -1.868104815 1.418552160
-0.205080315 -0.259801537 0.865403354
0.182473764 -0.141939148 0.795536518
-0.042600513 -0.215395972 0.881216764
0.696882963 0.710856140 1.550424218
0.048445646 -0.023330225 0.830697596
0.198219359 -0.581169307 0.798741937
-0.092345275 0.118078560 1.194200993
-0.065311477 0.147935063 0.760600269
0.558666110 -0.492024779 1.965782762
1.576271772 -1.452489495 1.964047313
-0.080282502 -1.131472349 1.439651847
-0.473188579 -3.251843691 2.025551558
0.037510876 -0.003491231 0.813506126
0.012106107 -0.143577084 1.185001016
0.015525824 -0.011859835 0.851929128
-0.310877591 0.235675007 1.309084654
0.194897801 -0.127317622 0.824083805
0.429335028 -0.613405585 1.280841351
0.186838478 0.064931609 1.716655850
-3.307939529 -1.266738534 2.014504671
-0.195556656 1.220896721 1.330527663
0.014364302 -0.025082076 0.903494120
-0.040998340 -0.051424127 0.893771589
0.030627549 0.007694795 0.960880041
0.036903352 0.008468317 0.948788762
0.034808151 -0.011856743 0.846787572
-0.168834493 -0.020507235 0.862885416
0.347421497 0.591441274 0.893131673
1.089642644 2.458090067 1.355417252
-0.116706170 -1.097186327 1.024782896
0.521826148 0.144710466 1.213122487
-0.479737729 -0.608957648 1.791145802
1.564899087 3.422274590 6.697813988
0.004967933 -0.029011186 0.880602896
2.447245598 0.965636969 3.050865412
-0.067541100 0.031105490 0.992829382
-0.093163416 -0.043254472 0.996074140
-0.090406731 -0.043788593 0.992225289
0.192350179 0.266341984 0.979445338
-0.041684721 0.001187010 1.083007455
0.015875574 -0.034841996 0.815283120
0.197794855 0.191812545 2.223888636
0.056661457 -0.022469310 0.858228922
0.053074740 0.000266026 0.851802945
0.259661466 0.229779154 2.582412004
0.046429925 -0.043991622 0.887826622
-0.024638399 -0.029009005 1.140994072
-1.195281148 0.403220505 1.015691400
0.080367565 -0.263242155 0.909916937
0.046908285 -0.015128791 0.852343798
0.085850641 -0.420406669 0.997898042
0.248729885 -1.951727152 0.836594164
-0.458002090 -0.346353173 0.823224247
0.042557094 -0.053532608 0.900146306
0.003471786 -0.046619803 0.879491031
-0.013449141 -0.027449708 0.884120405
-0.009117472 -0.034973621 0.926001132
-0.013886212 -0.027751459 0.884061217
-0.226249650 0.117368706 0.888946593
-0.032581791 -0.037018906 0.943799973
-3.247931719 1.378656149 4.230763435
-0.109159037 -0.073992990 0.793739796
-2.318344355 1.528227687 0.530084729
0.759730518 -2.712635279 1.523103833
0.017972315 0.013198504 0.889927804
0.018299101 -0.000348366 0.953130364
-0.003480393 0.009969061 0.898285925
-0.008432587 0.011453737 0.877423525
-0.003979423 0.008867627 0.895691454
0.041339632 -0.043589633 1.146417856
1.443518996 0.857895911 2.107964039
0.002072029 -0.022546886 0.918474913
0.000694439 -0.024186661 0.923476100
0.519799232 -0.390765488 0.923617840
-0.052481953 -0.096731707 1.083591104
0.320119858 -0.233419701 1.095826030
-1.844312429 -1.365917921 4.950738907
-0.117621943 -0.742075741 1.098080039
0.759008348 -2.695144892 1.514025569
-0.589398265 -0.544643104 1.106257677
0.017412061 -0.062250488 0.969363511
0.063619822 0.139300749 1.334445477
-0.023070011 -0.071841463 0.968779564
0.079329766 -0.045874473 1.087440252
1.539182425 -1.124996066 1.621988177
0.011714381 -0.026198916 0.900634766
-0.294752777 -0.653656304 1.001262546
-0.132697403 0.118551284 0.966976881
0.289202452 0.769426763 1.264528990
-0.044072438 0.013231829 0.942100942
-0.035536941 0.012738011 0.861499071
2.758049488 -0.050974373 4.453858376
-0.039161198 -0.174780279 1.346044779
0.093839094 -0.093810908 1.168062687
2.078976393 1.088708043 1.848224401
2.146987438 1.129083276 1.888443470
-0.223649815 0.699678898 1.488904595
-0.190868825 -0.592786610 1.339817286
0.533073485 1.001915812 1.215821862
0.464584887 0.790208340 1.055928111
0.468351185 0.801614702 1.064583421
1.105291843 -0.742393374 1.646713018
-1.814507365 0.011846877 0.736285448
-0.203242943 0.253775328 0.886614621
0.013689634 0.192037717 0.977865398
0.002500509 -0.009501291 0.944456518
-2.139990091 -1.207839966 1.170769811
-0.418505490 -0.147064343 0.991101086
-0.024316551 -0.158758834 0.890046716
-0.024403421 -0.157454103 0.890643954
-0.052885178 -0.035233214 1.068206072
0.284541607 0.747902930 1.252046585
-0.340575963 -1.739357471 1.530366778
0.133972138 0.681855261 1.151939988
-0.106044099 0.314065397 1.217427731
0.180846289 -0.869609118 0.961979926
6.244659901 -0.708696425 6.021965027
1.883178473 -9.391607285 2.019486189
0.224267066 -1.950625658 1.131854892
0.009468183 0.007076416 0.966233611
0.412946850 -0.305994451 1.407490253
1.659537792 -2.673500061 1.952808499
-0.667089462 -0.770406127 0.939733267
-0.461821526 -0.386721790 0.996367574
-0.102593780 0.019748757 0.975802958
-0.244787008 0.130583391 1.202709794
-0.102067702 0.019254958 0.975410938
-0.000280968 -0.063563421 0.931823969
-0.016662577 -0.030670119 0.974474251
-5.745798588 -4.648201942 3.508885860
0.343930662 0.195218638 1.155995846
-0.029616416 -0.041082531 1.054128885
-0.163632840 0.247017339 1.596805215
-0.784575820 0.672089159 1.358743072
-0.807151079 0.688505232 1.375280499
-3.260647774 -2.345638514 4.997350693
-3.316045523 -2.374993086 5.062355518
-0.178344205 0.073980011 1.083113194
3.882346869 0.872086227 7.774642944
1.985158443 0.270609468 4.887385368
0.566017032 0.126223147 1.941311359
0.184401214 0.049028594 1.129300475
4.322095871 0.882442892 8.606005669
0.108848721 0.019038683 0.967615128
-0.026897468 -0.004576561 1.180565238
0.100703850 -0.960024834 3.342155695
0.402893901 0.326689810 2.612043858
-0.557290018 0.663510561 1.298772335
0.688417852 0.294912726 1.143881321
0.007806289 0.146190569 1.222758174
0.473954648 0.433989763 1.315976024
-3.191202879 4.699603081 2.629758596
1.529168963 0.435983419 2.073263407
2.547932625 0.647666991 2.900006056
0.240507081 -0.700848937 1.671613812
0.561503410 -0.438686222 1.037623286
2.501472712 3.247318268 1.575268626
-0.011246831 0.009863971 1.081666827
-0.389195591 -0.548070610 1.595340729
-0.010882471 0.009764349 1.082995772
-0.396547765 -0.579673290 1.626502872
-0.397533387 -0.580187976 1.627736211
-0.396716982 -0.579769254 1.626719832
-1.675479293 0.719531715 1.258568406
0.057872921 -0.128925249 1.052820325
0.027386786 -0.097553961 1.308338404
0.144031435 -0.728345692 0.942648530
0.034639288 -0.102848269 1.319423199
-0.036986120 -0.164821371 1.161345959
-0.212516516 0.122268558 1.441830873
2.364977598 -1.505565405 3.106093168
0.019138250 -0.051288452 2.853082418
-0.088102028 -0.214323029 1.073687911
0.028335635 -0.057615872 2.622004986
0.273306757 1.369084477 2.408619881
-0.010556812 -0.032082275 1.045080304
-0.157741666 -0.019996341 1.048321962
-0.547325611 0.395856440 2.256988764
-0.240460649 0.275533140 1.076621771
-0.361014903 0.253039837 1.758140802
-0.157140866 0.062011253 1.189378738
0.410160273 -0.232093260 1.020453215
-0.173563629 -0.060228582 1.348657131
0.241454914 -0.404540122 1.356154919
0.376359135 0.173840314 1.746169090
0.568962753 0.129073590 1.145346880
-6.042216301 5.160655022 2.466704130
0.305189222 -0.005218317 2.194960833
0.055414282 0.028442780 1.081265688
-0.038927954 -0.009113504 1.228761554
0.027021408 0.036206961 1.137520313
-0.768184483 -0.306817651 0.899770141
-0.504888177 -0.323619753 2.307456493
14.153379440 4.628351212 12.090625763
0.026960772 -0.239864185 2.323673964
0.010404710 -0.035927713 1.174493909
-1.847307801 -1.406317711 1.746037841
-0.155821338 -0.150841773 1.027278423
0.150066614 0.439382493 1.036134720
0.159541294 0.453770399 1.046631575
-0.190983668 -0.457156986 1.195484281
-0.081062101 8.555659294 2.098750353
-0.525715590 -1.312115669 1.550307393
0.467943639 -0.287803650 1.187092900
1.375339746 0.295485705 1.396001458
0.039387979 -0.001444460 1.085835576
0.683074713 -0.580361247 1.481254816
-1.386165977 -0.024082210 1.740197182
-2.816773653 0.572027206 3.641493320
-0.168874040 3.879821062 3.110780478
0.253752649 -0.015794557 1.077722192
0.984282434 -0.062494881 1.367121696
0.039452437 -0.225590140 1.222485423
-0.108566537 -0.101825505 1.238368154
-0.178466007 -0.057642996 1.209845781
-0.213480458 0.395051271 2.766008854
-0.045421790 -0.047300700 1.063763499
0.079603978 0.315690458 1.267087340
-0.035608847 -0.026499601 1.217964649
0.068032816 -0.108822465 1.057422280
0.480975151 -0.232999846 1.330771208
-0.968510449 -0.452899367 1.941164017
-0.098025091 -0.112238899 1.869528651
-0.055371515 -0.075082451 1.118439913
-0.125382692 -0.071822211 1.293752432
-0.030562803 -0.035943046 1.144978881
-0.028889092 -0.035646487 1.143257022
-0.030072488 -0.035815939 1.145182610
-0.352365762 -0.153849378 1.867081523
-0.264429748 -0.200924858 1.487112284
0.473876685 0.286753684 1.299679160
-0.095261432 -0.188106611 1.363821626
-0.065012291 -0.075366624 1.126988649
0.016829016 -0.162847340 2.539532661
0.043902084 -0.047323663 1.169220686
-0.060262352 0.110869564 1.475814223
-0.059451398 0.111005701 1.471891522
