ply
format ascii 1.0
element vertex 1282
property float x
property float y
property float z
end_header
0.054763306 0.016756533 0.067694761
-0.066425949 -0.092398532 -0.034369834
0.022184581 0.011206366 0.066573180
-0.163888231 0.079147212 0.034924347
0.021865595 -0.031542752 0.088249244
-0.361735314 -0.328568637 -0.057378031
-0.254799992 0.019237237 0.166513965
-0.219279766 -0.004637894 -0.103319034
-0.050485954 0.036887277 0.082865484
-0.099137701 0.137894660 -0.058822986
-0.406697243 -0.207957238 0.179558739
-0.005858453 -0.110234685 0.093339525
-0.953561544 -0.095452875 -0.188045695
-0.168607786 0.157128498 -0.135546312
0.072459012 0.310440987 1.267561316
-0.221698835 0.500687540 -0.793687403
0.058990899 0.158501834 -0.066180699
-0.185812205 0.254643977 -0.071093760
-0.301342726 0.022452919 0.163337618
-0.000687707 -0.022347068 0.087399900
0.017209053 0.109061062 0.197583601
-0.490503550 0.020322302 -0.319788069
-0.312147409 0.002763707 0.129835486
0.023148585 0.360947728 -0.399594009
0.250862062 0.131650880 -0.055701382
0.080406636 -0.057934549 0.174259678
-0.565306067 -0.044613898 0.062723294
0.001448536 -0.052595329 0.132579222
-0.211680800 0.048971038 -0.032781538
-0.174239665 0.049082544 0.060837548
-0.862420380 -0.326529115 0.102934368
0.044303950 0.026663160 0.032443698
-0.192487732 -0.092295013 0.243429795
0.006508766 0.008418405 0.060897924
0.054248784 0.018142955 0.069559135
-0.039620392 0.146857798 0.062200513
0.198835090 0.043189514 0.015767783
-0.485337734 0.116252750 -0.205297440
0.006999778 0.007195065 0.061139539
-0.002458571 0.013414670 0.032001220
0.012124565 -0.016088633 0.073672153
0.007847597 0.008403161 0.060874477
-0.287807763 -0.012444281 0.122573674
-0.013027671 0.055086318 -0.012992590
0.232652202 0.130995974 0.082966097
0.243676275 0.143205926 0.081614889
-0.013346923 0.158796012 -0.033274017
-0.193700224 0.236307427 -0.253155291
-0.040298995 -0.070379347 0.172897696
-0.185695380 0.033793792 0.162448645
0.125268772 -0.038158145 -0.287617147
0.372414261 0.087525651 -0.001124519
0.219931275 0.120133325 0.086101919
0.324482530 0.036069240 0.148979068
0.250639915 0.160070658 0.055609193
0.058847133 -0.093387924 0.190798357
-0.038514115 -0.049788732 0.222618967
0.092454314 -0.086166210 0.220979080
0.059319872 -0.093922384 0.191392839
0.110539861 0.114590362 0.097386248
0.061797835 -0.097075410 0.177569300
0.025066709 -0.075360209 0.170583948
-0.371087015 -0.083912067 0.171659932
-0.193886772 0.020105353 0.101175502
-0.789634764 -0.673957169 0.379049271
-0.605363131 -0.239123851 0.071206726
-0.346435577 -0.087654948 0.223319620
-0.078710817 -0.116845347 -0.023509633
0.006977703 0.009982258 0.068469450
0.284979314 0.172938496 -0.158407331
0.392853558 -0.034881186 0.126538381
0.067587629 0.012272114 0.071731344
-0.366024166 0.333578795 -0.309742153
0.185488880 0.065187231 0.142807692
0.180089697 0.055242773 0.030750465
0.338223875 0.030323487 0.084610298
0.998093247 0.460666090 -0.672284484
0.213612914 -0.050093122 -0.170706794
0.606891215 0.140317142 -0.377318114
0.604296088 0.141785711 -0.370284647
0.669171453 0.471397847 -0.665576041
0.646659076 0.154185981 -0.413774729
-0.031868543 0.196311161 -0.126973212
0.306718141 -0.107704908 -0.192507401
-0.024009399 -0.051059946 0.127047926
-0.100165434 -0.033446431 0.327763319
0.110637426 0.289822578 -0.076517873
0.076667212 0.224972054 -0.045337640
0.205023468 0.094731718 0.013373243
-0.120820023 0.221320555 -0.180631518
-0.258371711 -0.202980936 0.236087516
-0.771500468 0.469399989 -0.739825130
0.058336422 0.213654011 -0.077896059
-0.077572785 -2.192305803 1.329683781
-0.666596234 -0.321163982 0.114313506
-0.305723161 0.018604700 0.163454831
-0.122536637 0.040344879 0.067369498
0.182888493 0.051393315 0.345092773
0.257833987 0.422510266 0.355046570
-0.123186141 -0.179025531 0.214094639
0.140304863 0.027241530 0.153150707
-0.126484632 0.044562481 0.032360971
0.049211342 -0.028033072 0.109190717
-0.199662134 -0.104069047 0.240862131
-0.150958255 -0.013774387 0.203289241
0.055993829 0.066883653 0.126895055
-0.369064897 -0.087305173 0.162681505
-0.097944960 0.096006319 0.087397002
0.446787357 0.047590215 0.016320033
-0.124576762 -0.265793860 0.233307749
0.298094660 -0.209180743 0.230284020
-0.087233238 -0.162616104 0.260901600
0.181052640 0.090929635 0.110160664
-0.056973282 0.211179927 -0.025081268
-0.091710120 0.077776879 0.107673235
2.213985443 -0.342927814 0.693955243
-0.025640076 0.262226522 -0.619768679
0.496848583 0.862583458 -1.278358817
0.056369811 0.262866020 -0.246804684
0.168934822 -0.252167463 0.324316502
-0.000220550 0.280217320 -0.298431367
0.183023438 0.126023009 -0.094191685
0.548653364 -0.116758116 -0.188415959
0.015819844 0.075071298 0.113890588
0.001432564 -0.032332469 0.233663961
0.007864439 -0.006959803 0.082413420
-0.114041194 0.024392979 0.046337105
-0.013954809 -0.032657061 0.099059939
0.067117557 0.009030820 0.070751138
-0.029811800 -0.259059936 0.332502931
-0.644332349 -0.276431859 0.133676380
0.186890662 -0.241978079 0.281848431
-0.605075777 -0.110592939 0.084465742
-0.736001611 -0.055638447 0.165561870
-0.206187040 -0.030057386 0.103863575
-0.199234411 0.069893554 -0.353655964
-0.328932494 0.226941466 -0.416543901
-0.503716409 0.170704678 -0.190491676
-0.001256176 -0.062781394 0.141985670
-0.164086163 0.010550166 -0.318691552
-0.173146933 0.380092531 -0.426399827
0.163069651 -0.773192167 0.501631320
0.140183359 -0.816009045 0.547518551
-0.414243042 0.032553203 -0.029254971
0.013405652 0.030193249 0.110481597
-0.003592412 -0.025673518 0.081580631
-0.139332294 0.077720650 0.103951186
-0.057346165 0.211987138 -0.025205707
-0.603052139 -0.281492352 -0.013413042
-0.602377415 -0.288649708 -0.018428374
-0.472665280 0.245353639 -0.354211777
-0.123845592 0.193883419 -0.158736616
-0.130683690 0.097757965 -0.031993303
-0.413499802 0.195423976 -0.332489997
-0.120949440 0.052482769 0.272582561
-0.578964949 -0.022817349 0.098572195
-0.183635548 -0.207522094 0.215978652
-1.007951736 -0.296135962 -0.035096209
0.024135264 -0.020993715 0.083432235
0.021796538 -0.021884160 0.096820503
0.003586434 -0.076183379 0.188520864
0.000672044 -0.023924641 0.087240160
0.433789104 0.073474295 0.042259514
0.074689321 -0.129253700 -0.223430276
0.349579006 -0.100511178 0.182452902
0.030167911 -0.025559789 0.086253434
-0.109067209 0.091802195 0.066556357
-0.122824177 0.118567333 0.056298029
-0.670191705 -0.379818976 0.163113907
-0.347458601 -0.225700870 0.132187963
0.090081036 -0.314122438 0.126313716
-0.687713802 -0.362634599 0.053498827
-0.138238460 0.028046586 0.029422844
-0.042850740 -0.011184284 0.015245071
0.101793550 -0.553505063 0.210491374
-0.266074806 0.436303079 0.152251124
0.229611680 -0.112335049 0.245578811
0.300864428 0.132456213 0.078194454
-0.146710396 0.082737148 0.026474735
-1.446892262 -1.187089562 0.852117658
0.131427437 -0.198478043 0.216278985
0.018972907 -0.020538304 0.099867024
-0.019321330 -0.248900428 0.312242568
-0.112252153 0.092387825 0.064632758
0.350765109 -0.018934362 0.234258816
-0.404584497 -0.269399017 0.258798957
-0.179452881 -0.427703887 0.401830375
0.023288449 0.016432110 0.063087739
0.009372603 -0.060973749 0.187211081
0.005421034 0.006929143 0.066936180
-0.561534882 -0.052805651 -0.024664333
-0.190244660 0.252347112 -0.060668357
0.006789914 -0.041584566 0.121436298
-0.055032615 -0.135171503 0.259421200
-0.253774285 -0.193905175 -0.181679040
-0.223502472 -0.102403924 0.267219663
0.183326930 0.059426107 -0.049256798
0.322438985 0.050789751 0.133463204
0.132884532 0.046800021 0.035261746
0.478996307 0.097372785 0.031762466
0.016800866 0.028004017 0.106261156
0.018804256 0.026121104 0.103998102
0.005581537 -0.004326408 0.084352575
-0.185769349 0.043884054 0.098021626
-0.189669609 -0.205591857 0.218455091
0.112482585 -0.042353947 -0.245669007
0.046945062 0.228967264 -0.095187515
0.369980812 0.089092612 0.064407721
0.066179164 0.082576506 -0.089351699
0.946797550 0.597666621 -0.833142817
0.465928286 -0.087289825 0.195265159
0.246742100 0.285476118 -0.612196743
-1.154193163 0.262762606 -0.544901788
-0.309449911 0.332530886 -0.192523211
-1.064810395 -0.508513570 0.239086896
-0.454534650 -0.026191417 0.206423759
0.013708958 0.033640567 0.112167001
1.160597444 -0.401550114 0.604185462
0.034655973 -0.208016753 0.314062417
0.264127940 -0.083042927 0.123596609
0.203516856 -0.343809873 0.341879815
0.085746787 -0.025508747 0.236252815
0.161658913 -0.150213346 0.288990200
0.000628546 0.209365204 -0.056977935
-0.591570675 -0.037357163 0.040809151
0.005054784 -0.040413324 0.121470392
-0.454083234 -0.109294675 -0.194045931
-0.369507998 0.150548115 -0.139392287
-0.675068676 -0.291797698 -0.026421815
-0.485519081 0.124367550 -0.214291707
-0.187021375 -0.178723231 0.229370743
-0.764691412 -0.029530255 -0.265408665
-1.030978680 -0.227912754 -0.093410462
-0.642224550 0.165158436 -0.457736671
-0.352525443 0.094972104 -0.391861588
0.061027627 -0.100009397 0.160250545
0.296174586 0.015428074 0.153071240
0.239520296 -0.016795838 0.151135460
-0.133381143 -0.335485607 0.381155252
-0.010967935 0.202385530 -0.065716058
-0.210212097 0.509549737 -0.734053910
-0.316773206 -0.017211061 -0.027610511
0.114981823 0.078401163 -0.006474315
-0.132780045 0.385873705 -0.384448886
0.058148775 0.166161507 -0.067195818
-0.159071162 -0.087529138 0.285182625
-0.160651192 0.032535762 0.033941884
0.019188588 -0.021804567 0.101199649
-0.228082269 -0.063714959 0.076238953
-0.519895375 0.212851450 -0.209794194
-0.032054532 -0.105430603 0.212529778
-0.056492195 0.257982016 -0.086451590
-0.469756842 0.255242944 -0.251048982
-0.130252674 0.096574225 -0.024153488
-0.250682056 -0.059544850 -0.314058334
-0.092701435 0.036904562 0.045392212
0.067649990 0.012420067 0.069424428
-0.105137236 0.163175225 -0.104916163
0.002496693 0.213270023 -0.064320989
-0.120459393 -0.204833627 0.046744153
-0.084335424 -0.783499956 0.468994498
-0.318913966 -0.098592907 0.277932942
-0.011894313 -0.063658096 0.229118928
-0.238452703 -1.711593628 1.302480102
0.029737590 -0.049275909 0.176305518
-0.005028360 0.116171375 0.301403791
-0.027350903 0.048671465 -0.071581870
-0.363326132 -0.055796649 -0.227880627
0.080539733 -0.210804790 0.256466478
-0.010128120 -0.112551853 0.221635818
0.972254097 0.355916411 -0.524330139
-0.022751523 -0.041005451 0.119244985
0.001651081 0.088646010 0.169373363
-0.134336784 0.022050854 0.058579963
-0.501466691 0.152736425 -0.163413674
-0.116556935 0.208094552 -0.173605576
0.055327483 0.116918713 -0.061365303
-0.185896933 0.033595320 0.078314841
-0.251978517 -0.120006092 0.263549298
-0.335750312 -0.150626943 0.134354740
-0.169494480 -0.229774743 0.235427961
-0.335425377 -0.041423269 0.229981631
-0.297799319 0.568419755 -0.903919816
0.081261791 0.184996665 -0.159680501
0.197563097 0.054685991 0.032989375
-0.705277264 -0.041906677 -0.238561675
-0.013163184 0.109022327 -0.409126788
-0.394572914 0.376193643 -0.412397534
-0.448428303 0.209673256 -0.281873286
-0.235467657 0.051261425 0.135210007
-0.311907023 0.003450194 0.002209358
0.132710829 0.149671018 0.059522521
-0.995463610 -0.289112896 0.054347388
0.068468399 0.016698927 0.163571790
-0.184060156 -0.003737160 0.075836822
-0.015487795 0.110874623 -0.413241357
-0.055630196 0.191348284 -0.052395593
-0.868820608 -0.452387422 0.170173258
0.057454269 0.181195945 -0.065507896
-0.243850097 0.343854189 -0.641364753
-0.978026390 -0.651083827 0.363668382
-0.057675287 -0.083318911 0.160106316
-0.255457610 -0.171667501 0.187893748
-0.058181226 -0.083180189 0.160316229
0.066701502 0.010981632 0.070533492
0.036329955 0.037920374 0.112354949
0.043835543 0.024619652 0.342154980
-0.123111829 0.053940058 0.265244544
0.010489828 0.160027519 -0.027792547
0.008085270 -0.099385075 0.179449245
0.096310213 0.078573599 0.114531375
0.057697192 0.025428701 0.086553060
-0.131051108 0.287223727 -0.312849820
-0.103474133 -0.073429979 0.423280805
-0.110850647 -0.108714260 0.220645010
-0.147009015 0.003731803 0.067486711
-0.174385503 0.066543475 0.081530586
0.037286393 -0.220068604 0.330040187
0.074459173 -0.282211035 0.325131208
-0.534493268 -0.061903622 0.104451999
-0.299882412 -0.143488243 -0.157585874
1.021213889 0.479335487 -0.690698206
-0.121191412 0.247963309 -0.257000923
-0.056961853 -0.020632483 0.023363151
0.191356272 0.058150314 0.249593720
0.192184374 0.129099414 -0.100325100
0.329457700 0.006318004 0.072537653
-0.352509081 -0.155807972 0.142336220
-0.175235465 0.048933856 0.129900530
-0.495382637 -0.192517236 0.156778380
0.601260364 -0.407854825 0.243630514
0.036468450 -0.258023143 0.308479279
0.075352848 0.100994200 0.027905779
0.246509895 -0.014643701 0.213546157
-0.182733253 0.008530824 0.065517358
-0.147719800 0.166717947 0.040455293
-0.103638195 0.151806816 -0.039125148
-0.317727566 0.448539734 -0.530928969
-0.346319705 -0.103352718 0.175770000
0.008009741 -0.098430023 0.178477317
-0.067216553 0.014708261 0.266711861
-1.314831257 -0.437390476 0.333243877
0.030984703 0.080163866 0.010497321
-0.131143332 0.096957050 -0.024031337
-0.303546816 -0.140041605 -0.149755582
-0.352687120 -0.298196912 -0.076022886
0.083073556 0.062031701 0.152275816
0.079413995 0.003654732 0.117258772
0.082626946 0.012625366 0.162640899
0.082480438 0.013611592 0.162624776
0.006521355 -0.042106811 0.120603994
0.036298785 -0.167237878 0.361894011
-0.213355169 -0.519279063 0.496726453
-0.612166286 -0.306235403 0.010120568
-0.049355779 -0.378932923 0.018462358
-0.639317572 -0.224991098 0.062836118
0.003381506 -0.032267489 0.226061195
-0.321267366 0.463308632 -0.450076252
0.064654820 0.009399557 0.071274482
-0.263493419 -0.059308194 0.075885169
0.030197067 0.067109786 0.117989883
-0.277406037 -0.553423703 0.564413369
-0.007499396 -1.471437454 1.205782056
-0.108245350 -0.171834096 0.241535515
0.022279283 -0.150389940 0.118668504
-0.019523727 -0.209828809 0.158389971
-0.140407860 -0.457415044 0.265419900
-0.570889950 -0.893922210 0.495308310
-0.276767761 -0.138409957 -0.138535589
0.039509878 0.037594572 0.074751489
0.150752813 -0.062394120 0.586350560
0.043775741 0.087668918 0.290171117
0.000633723 -0.031779271 0.235271901
0.095925845 0.504111707 -0.515073836
0.022055395 -0.022898776 0.096122921
0.016625308 0.029318361 0.105460741
-0.059354212 0.174059644 0.065137833
0.029077278 -0.018759875 0.188600257
0.169142112 -0.160470292 0.311664462
0.016858663 -0.030886246 0.093464948
0.019341227 -0.021320365 0.101486675
-0.009381108 0.204791829 -0.030993547
-0.146764129 -0.270168841 -0.090396404
-1.184237599 -0.629971147 0.295047790
-1.012642622 -0.301817924 -0.036347177
-0.006398064 -0.040684037 0.224546656
0.004521484 0.008092394 0.062375244
-0.211716831 -0.385838032 0.028416801
0.002906559 0.006171899 0.065344818
-0.507497191 -0.194549367 0.162799045
-0.002855517 0.234788701 -0.075206995
-0.282917947 -0.018896636 0.126179770
0.008300334 0.009556737 0.060873289
-0.061057154 0.116605639 0.075338557
0.331322312 0.034297805 0.152302846
0.017804408 0.013060989 0.019326374
0.019751200 0.014490644 0.021838136
-0.229936153 0.029395394 0.061418220
0.010702545 0.061859466 0.077595986
-0.012345133 -0.080965877 -0.002756210
0.056448869 0.068365872 0.130871996
-0.736810088 -1.061917901 0.754526198
-0.263933539 0.482932568 0.857902825
-0.432827801 -0.185509026 -0.106283672
-0.136993513 0.085355066 -0.017284527
0.630217612 1.206311703 -1.070614219
0.256227791 0.283941746 -0.609763801
0.437902033 0.089262195 0.031291649
0.009357302 0.070169292 0.107778773
-0.832179546 -0.048330229 -0.163785607
-0.333645582 -0.368014306 0.042045437
0.357256830 0.635125041 1.110015869
0.316234440 0.439824432 0.826942563
-0.231248543 -0.356808186 0.141687810
1.251701117 1.484413147 -1.823250294
0.069518767 -0.132903308 0.209804729
-0.112966456 -0.016491864 0.209803164
-0.027419340 -0.074667215 0.170516104
0.025347006 -0.097256131 0.188558236
-0.042593125 -0.044129569 0.177980304
-0.574422300 -0.095889762 0.045948248
0.203275174 0.062933750 0.029234488
0.176786005 0.052818246 0.051686149
0.064428769 -0.010346278 0.144336760
0.005764890 -0.041443709 0.121515773
0.062008481 -0.008898905 0.153755888
0.032831252 -0.038861386 0.143622056
0.038106725 -0.123186618 -0.312790722
0.429561347 0.133193687 0.083380803
0.189474002 0.086101353 0.113297336
-0.369720876 -0.153875545 0.150779888
-1.442928076 -1.163351536 0.831359386
0.021636441 -0.047445655 0.189676195
-0.234296009 0.021139650 0.112550437
0.378400236 -0.023734385 0.237957731
-0.069488972 0.142441094 -0.184363082
-0.046056293 0.195552066 -0.150225848
-0.245194435 -0.169792384 0.184800595
-0.243883222 -0.401727349 0.066030160
0.114436120 -1.020771384 0.376386464
0.385333627 -1.625386953 0.644383013
-0.569717288 -1.933470845 1.611213565
0.022185786 0.017363239 0.065330185
0.280133635 -0.587615430 0.309626579
0.058731712 0.022065042 0.085317507
-0.648091078 0.236616269 -0.516878664
-0.012197198 0.242358118 -0.061929330
-0.420811355 0.146537170 -0.453198075
-0.130217940 0.165964171 -0.143684864
-0.127618611 0.205191672 -0.128919512
0.093981631 0.032435223 0.282286137
-0.167322770 0.034622479 0.034212857
-0.121447898 0.041098896 0.033063423
-0.587734461 -0.097859710 0.032961026
-0.650528252 -0.128794640 0.142801866
-0.000728830 0.180800602 -0.070542261
-0.431091279 -0.039414044 0.177536458
-0.246599436 -0.201231807 -0.160290703
-0.299373299 -0.064164862 0.066457056
-0.542326152 -0.306226641 0.001160712
0.095116876 0.074000634 0.116122171
-0.167988747 0.168404743 -0.170223519
0.018938098 0.097650416 -0.046876539
-0.223113224 0.591827214 -0.847113967
-0.156823039 0.028579401 0.037058555
-0.092351437 0.060985610 0.016708637
0.054390632 0.076942995 0.266450673
0.069058374 -0.057629555 -0.097581282
-0.325022608 -0.030205950 0.097168639
-0.451250911 0.131021023 -0.239003912
-0.590445697 -0.185786992 -0.113493636
-0.123641767 0.746412158 -0.905056298
0.177562460 0.331539452 0.308396459
0.064309478 0.137135848 -0.088683426
0.076018810 0.333679110 0.419711471
-0.202264860 -0.030276624 0.103749283
-0.184711933 -0.314211458 0.317414671
-0.815405726 -0.048653141 0.175131962
-0.803967059 0.246915519 -0.517323852
-0.611546695 -0.293913871 -0.016020510
-1.653451443 -0.298807949 -0.076130278
-0.207480237 0.590619147 0.277050495
-0.876929343 0.129015774 -0.430345625
-0.188212588 0.031895004 0.085547715
-0.849749148 0.121680364 -0.420078337
-0.703257620 -0.376821399 0.239218101
-0.948318839 -0.093525097 -0.179928884
-0.503963351 0.462091297 -0.348339915
-0.558569193 0.459361792 -0.454081744
-0.041863285 0.402348518 -0.383069694
-0.240705177 -0.021956980 0.115197144
-0.039995417 0.135711044 0.060882796
-0.190024734 0.106622875 0.022223681
-0.114501178 0.026000174 0.046946380
-0.869770467 -1.529555559 1.450031996
-0.181725919 0.104156308 0.022055052
0.054647658 -0.105573438 0.092493340
-0.094881035 -0.197684854 0.286474079
-0.002806994 -0.075998649 0.199150831
-0.004190437 -0.036454931 0.202826306
0.009166966 -0.055301715 0.134403020
0.325307906 -0.252665222 0.616982460
-0.273720801 0.015523116 -0.015930710
0.190113395 -0.240694672 0.352669358
0.253669977 -0.748766243 0.442238450
0.437763751 -0.143819198 0.097900599
0.017851124 -0.018096024 0.216081738
-0.027449420 -0.257498443 0.319205254
0.036132138 -0.284076065 0.275984794
-0.178975746 0.096612483 0.053282168
0.018360902 -0.030081287 0.090850018
-0.345849365 -0.296492994 -0.072558217
-0.067644812 0.285839677 0.271388113
0.016125541 0.173964113 -0.105735570
-0.321933419 0.005182149 0.125810996
-0.571027040 -0.090117194 0.077040888
-0.182796344 -0.248070359 0.220858172
-0.014623890 -0.033183906 0.100740820
0.001598284 -0.032513224 0.088429973
-0.078720905 -0.358173460 -0.001523793
-0.307011396 -0.138839185 -0.152073815
-0.249479175 -0.142138109 0.208032355
-0.346194685 -0.100382067 0.145591080
-0.072211951 -0.175169930 0.249281585
-0.165804312 0.016671041 0.041700948
0.013919774 -0.052226994 0.149557173
-0.028153257 -0.049864214 0.127687201
0.011303784 0.009420895 0.062622316
0.117681839 0.530591011 -0.593605161
-0.606689870 -0.213470057 0.101781219
-0.001795053 -0.062059578 0.141262680
-0.842148960 -0.740113795 0.541651130
-0.294207156 -0.854942322 0.469541013
0.122846775 -0.005245461 0.231335938
-0.038008183 -0.064076319 0.176343709
0.006921002 -0.041757260 0.121946737
-0.084518962 -0.088781640 0.334161162
0.346431285 -0.298122019 0.038784526
-0.015948895 0.130187690 -0.042763412
0.729709446 -0.176383585 0.185435861
0.313155502 0.217267841 -0.128064141
0.870083332 0.096164763 -0.226935446
0.516029119 -0.177832291 -0.109100930
0.001078152 0.027007964 0.051759653
0.007722978 0.004443957 0.065540448
-0.047332883 0.146291852 0.060822230
-0.163030460 0.093994580 0.049345814
-0.024263887 -0.039058860 0.120761350
0.030649016 -0.165845454 0.340867162
-0.210064799 -0.182346120 0.211507916
1.736319184 -0.398030341 0.271747649
0.349821597 0.104935572 -0.029675253
0.373720616 -0.073452614 0.192324027
-0.782325149 0.108327456 -0.364070863
0.114842027 0.123863064 -0.074301802
0.034436438 -0.270189196 0.328064859
-0.024488749 -0.042967401 0.119932339
0.276416391 -0.138627142 0.282971054
0.517256796 -0.146987170 -0.131952807
0.001566681 -0.082095399 0.185917303
0.235868156 0.050504513 0.048018403
-0.339688092 0.084319025 -0.368154615
0.495825827 0.960479558 -1.176347613
0.384069532 -0.037364103 0.125287846
0.451250613 0.001659370 0.090304159
-0.006824696 -0.009742476 0.087176822
-0.031837702 -0.052472796 0.133876562
-0.282760024 0.467152864 0.589446366
0.045311399 -0.144107670 0.129637048
0.039474443 -0.088892303 0.176166609
0.049205434 -0.083202958 0.189502165
0.031388715 -0.075437136 0.204246387
-0.521052241 -0.143699661 0.176964119
0.067529581 -0.137665883 0.177807420
0.432036132 -0.025493613 0.125292897
0.413876444 -0.075802863 0.169324666
0.464548677 -0.076511197 0.202281773
-0.346407861 -0.294383854 -0.076049738
-0.474937409 0.134563312 -0.214914680
0.133376166 0.222061619 -0.120458595
-0.624769807 0.156728208 -0.443904340
0.194278583 0.172303155 -0.083963417
-0.331682920 -0.036826782 0.053954218
0.130109310 0.046637788 0.029262720
-0.391885668 0.375399023 -0.417863190
-0.120457023 0.171916768 0.278733999
-0.173584402 0.037519313 0.034825142
-0.130881086 0.538021028 -0.818238378
0.047291074 0.189413100 -0.086661242
-0.161094621 0.047997896 0.068532027
0.773530543 0.212798730 -0.520932436
0.168806985 0.302963018 0.299090683
0.186722234 0.043080382 0.014066726
-0.306769133 -0.042725023 0.059337940
-0.260858685 -0.019975744 0.018876879
-0.018579667 -0.057258394 0.137053937
-0.335593283 -0.103247374 0.174316317
0.036753513 -0.125877157 -0.283553511
0.192963406 0.022096487 0.062626578
-0.072704718 -0.015450624 0.212531283
-0.014508277 -0.090312339 0.177766100
0.094322696 -0.135042220 0.221310243
0.017946502 0.122157909 0.115035683
0.315175235 0.085220709 -0.015132831
0.280690759 -0.325280815 0.353107393
0.267745703 0.028786996 0.151317611
0.177119642 0.033035371 0.045233082
0.009078385 -0.055996262 0.134213150
0.075724073 0.043166120 0.165339068
0.161927134 0.033280563 0.058163200
0.001229578 0.022045664 0.057304081
0.005100607 -0.044249326 0.121924140
0.327645391 0.035891313 0.152833045
-0.011685542 0.155744687 -0.004130502
0.363164932 -0.019924175 0.098992176
0.445815355 -0.034045476 -0.185454741
-0.095544979 0.083601564 0.107614011
0.425863057 1.022921681 -1.269284964
0.184617996 0.158101842 -0.074739732
0.002649910 -0.007735681 0.085335813
-0.238507196 -0.057910819 -0.313596517
-0.369841546 0.338899553 -0.327136785
-0.197689891 -0.174694538 0.214668527
-0.144618541 0.218917146 0.548811495
0.340321928 0.024617940 0.175963923
0.625552714 -0.177131593 0.387828171
-0.196666986 0.070660204 -0.363319397
-0.197730437 -0.064071424 -0.266139150
-0.187122315 0.060430825 0.124937870
0.055318069 0.159796789 -0.091349065
0.300125510 0.109052956 0.479223996
0.194416925 -0.038570233 0.204681009
-0.198353037 0.035694052 0.225596100
-0.057050020 -0.083481081 0.159654170
0.033186562 0.018248048 0.293558568
0.177746907 0.087409243 0.361548156
0.184336156 0.191329062 -0.100733519
0.056477569 0.074777968 0.133739620
0.851011157 0.238424152 -0.174066886
-0.175464705 0.023178412 0.089780591
0.650156081 0.113086015 -0.392868847
-0.482404798 0.124039143 -0.210144147
0.057895940 0.025748322 0.085642964
0.017933888 0.011171417 0.067043118
-0.530792952 -0.085556194 0.142123014
0.011496547 0.183502674 -0.114953116
-0.426259249 -0.045202691 0.178280815
-0.606016755 -0.117252611 0.050966974
-0.550937653 -0.644115686 0.193491265
-0.731703639 -1.301887155 1.244902134
-0.460874438 0.111935288 -0.193888858
-0.090049937 0.086122468 0.104768112
-0.096700408 0.087233506 0.103785157
-0.096343897 -0.347408533 0.481577158
-0.079394266 -0.127523869 0.498867422
-0.572035551 -0.769552231 0.491539389
0.001162757 -0.024702538 0.087107241
-0.168273956 0.057031471 0.065496303
-0.101252697 -0.191373080 0.191519573
-0.454393387 -0.024441740 0.206716985
1.030727029 0.328711629 -0.377212971
1.047327399 0.274611324 -0.238987416
0.405009121 -0.092470631 0.183551222
-0.458832890 0.125189096 -0.232895568
-0.438531697 -0.151893213 0.205838144
-0.258699805 0.484817803 -0.769014359
0.153748646 0.023892768 0.163566470
0.013974460 -0.015895579 -0.203220218
-0.801197708 0.236196890 -0.530124784
0.195857182 0.033846114 -0.093502015
-0.002778241 -0.075905427 0.196016103
-0.133022070 0.102471672 -0.034979086
-0.249476865 -0.192666367 0.229974583
-0.094155230 -0.141532078 0.180420861
-0.323364824 -0.010731935 -0.032163341
-0.158873007 -0.091923267 0.284176588
0.033841249 -0.189919397 0.404753804
0.034592982 -0.183715686 0.373416573
-0.324715644 -0.145506859 0.177183092
-0.625629067 -0.830663919 0.525934041
-0.512541652 -0.608571231 0.303977996
-0.796135128 -0.427084684 0.211375639
0.001641877 -0.052968174 0.131976381
-0.383649319 -0.154833138 0.195277244
-0.879314005 -0.364873528 0.171334967
-0.597082496 -0.109878056 0.086501062
-0.658720672 -0.368841588 0.060066592
-1.173353076 -0.486118108 0.227999821
-0.159993425 -0.554838896 0.319688559
-0.119050533 -0.479344457 0.364849150
-0.004722748 -0.076500982 0.199745610
0.022023283 0.077579640 0.131800607
0.038717005 -0.036668599 -0.155819342
-0.191280201 -0.031955939 0.088553250
-0.115798667 -0.236601338 0.303799301
-0.824224532 -0.235665888 -0.066085748
-0.831965923 -0.219008714 -0.068046935
-0.628310442 -0.301556557 0.160634562
-0.033428144 -0.081119575 0.147179753
-0.440766811 -0.102025099 0.157227084
-0.445931405 -0.088640667 0.174484506
-0.864156067 -0.763189614 0.557780921
-0.004370322 0.013571785 0.064559087
-0.604487360 0.447215199 -0.423748255
-0.290176094 -0.005164672 0.128746927
-0.010555776 0.028531203 0.192240208
-0.241589323 -0.007521160 0.010414764
-0.006642251 0.173384234 -0.106839456
0.122622907 0.168263495 -0.075270124
0.102389380 0.049185984 0.021284778
0.038459774 0.173647374 -0.105890252
-0.161112085 0.150306121 -0.129464358
-0.322616637 0.055139728 0.125065014
-1.628702998 -0.583561301 0.448514432
0.604351223 -0.234238341 0.422249585
-0.282234430 0.113204226 -0.101367690
0.335495591 -0.173193514 0.283852816
0.023178522 0.094354972 0.108493283
0.052521758 -0.131612405 -0.182432100
0.071705475 -0.004241333 0.003750262
0.035094045 0.109867282 0.332627565
0.050073769 0.023552783 0.069679298
-0.079314262 0.192049369 0.009324698
-0.112019591 0.065261558 0.008015865
0.157335266 -0.147191390 0.238984644
0.050218940 0.023314953 0.069716707
-0.029187499 0.015242933 0.460378021
0.024793388 0.012507766 0.469147950
-0.077096701 0.189745635 0.007649825
0.050932467 0.022314630 0.069168419
-0.023983682 0.012742412 0.426608622
0.053990588 0.070067510 0.129809231
-0.011107008 0.330040693 0.296026886
0.062991805 0.314834595 -0.198406488
0.075305499 -0.034623533 1.036206722
0.000946214 0.017352909 0.566202521
0.012766760 -0.017564559 0.103934892
-0.919446707 -1.352505684 0.710385561
0.138343975 0.061535105 0.037054330
0.136169538 0.132440239 0.078884959
0.004824263 -0.006104656 0.085085616
0.148909524 0.053358000 0.035538781
0.117460623 0.114360549 0.071203232
0.086586863 -0.018033788 -0.283063293
-0.355560780 -0.296917826 -0.077839240
-0.249934778 -0.194552079 -0.180814818
-0.261797398 -0.002624795 0.126029491
-0.990526140 -0.104545079 -0.206079662
-0.730032861 -0.072738975 -0.043308504
-1.025230289 -0.438913018 0.210890785
-0.230030119 -0.101764791 0.270571589
-0.045831166 0.187785730 -0.068339460
-0.651954949 -0.072392479 0.059899341
-0.029304035 -0.146889001 -0.049280100
-0.113915578 0.210621610 -0.152862042
-0.385509670 0.699884057 -0.399483323
-0.841813385 -0.135297999 0.103675582
-0.129686654 0.225369945 -0.121533282
0.407768160 0.070690975 0.014346332
0.383446157 0.128631473 0.082986228
0.207608089 0.044830907 0.040019475
0.002191191 -0.016018596 0.094638556
-0.557541668 -0.281778097 0.269316405
-0.658008277 -0.022284493 -0.145983845
0.443319470 -0.552585781 0.547525167
0.087608777 -0.231857732 0.283358276
0.350586891 0.053570021 -0.018166931
-0.085478723 0.086062089 0.105804153
0.002162029 -0.053019796 0.132577151
-0.023199167 -0.060238987 0.135960028
-0.062520221 0.304976374 -0.583092928
-0.309339285 0.002629573 0.000810922
-0.068150900 0.284292430 -0.543803096
-0.077908099 0.300187528 -0.567475438
-1.465052843 -0.015713574 -0.338358223
-0.383902907 0.247676730 -0.579624116
-0.043712117 0.141697302 0.060425382
-0.103135638 -0.197367311 0.197329223
-0.018119495 0.045391645 0.053639308
-0.134520262 0.100347608 -0.028833915
0.002188298 -0.057450432 0.130624667
0.050797198 0.038601320 0.005309355
-0.096852541 0.038726177 0.045295782
0.018167097 0.121767268 -0.039363932
-0.768421292 -0.031158162 -0.267662883
-0.021088941 -0.036050111 0.114790656
-0.058226619 0.117499433 -0.042750906
0.369071752 0.327738762 -0.322138280
0.423604667 0.029977307 0.070490435
0.900875270 0.326706141 -0.479671896
0.322768837 -0.596235991 0.295832127
0.257376343 -0.740397751 0.432105124
0.013608123 -0.088925883 0.175720051
0.042398762 -0.039440632 0.114063330
0.007819396 -0.100917690 0.171527237
0.189614311 0.062184077 0.027924906
0.148972377 0.027028630 0.155405104
0.073511019 0.002364560 0.094183207
0.129497141 0.010611066 0.155590326
0.000358827 0.002830019 0.064515986
-0.172404200 0.086199738 0.036937017
-0.266837686 -0.050944172 0.102149859
0.021838963 -0.027209306 0.092139766
0.001446591 -0.032945558 0.232800171
-0.354281276 -0.297756106 -0.077329963
-0.827031374 -0.232387394 -0.068456225
-0.372486323 -0.087098591 0.165591970
-0.571393669 -0.070994362 -0.015404502
-0.613697529 -0.121973053 0.141663402
-0.015522328 -0.059051774 0.138791159
-0.105430022 -0.201610059 0.259300977
0.036597930 0.027691094 0.084793769
-0.160985902 0.128790334 0.069568522
-0.135835513 -0.107989527 0.247469887
-0.029602522 0.123330832 -0.057023775
-0.428233176 -0.034080155 0.201026350
-0.208085284 0.482016295 -0.700977266
0.009129690 -0.056071695 0.133682713
0.008904273 -0.069577642 0.195284560
0.335768968 -0.019183237 0.107434340
0.707580447 0.901314259 -1.133585095
0.309353739 -0.109174088 -0.193559036
0.380808145 0.120602459 0.436444491
-0.165193588 0.228874668 -0.233132139
-0.167919934 0.230986223 -0.080207184
-0.177867666 0.008162432 0.085431665
-0.482363462 0.137156948 -0.134021774
-0.756910980 -0.034426764 -0.262551218
0.010766356 -0.020168319 0.072738901
0.054754004 0.028932774 0.008521088
-0.592170060 -0.070668243 -0.022651382
0.307979375 0.520923674 -0.798123896
-0.057347529 -0.082726911 0.159756854
0.138910815 0.132691860 0.049732558
-0.344929039 0.056056403 -0.110331833
0.195203528 0.218334839 -0.131536946
0.030443681 0.010617526 -0.369029075
0.445631444 0.058570717 0.020071849
0.401037067 0.021101706 0.070943199
-0.162661746 1.598290205 -1.674149752
-0.008070868 0.206851900 -0.030975202
-0.119734481 0.086926065 -0.006946788
-0.061823033 0.183365390 -0.117043994
0.141672477 0.069416389 0.060362473
-0.210117772 -0.045625780 -0.317304790
-0.180321261 0.028438065 0.087661169
0.007749032 -0.040652994 0.120961376
-0.007026250 0.183996469 -0.062196191
0.052902181 0.203436300 -0.046474136
0.080034040 0.235150605 -0.045993049
0.027480749 0.018478787 0.061681475
-0.389325947 0.273422480 -0.600299478
-0.417714477 0.151124150 -0.454027206
0.069947720 0.138114110 -0.007853603
0.073441371 0.197180957 -0.033962585
0.058723632 0.138044089 -0.071393847
0.006842074 0.037595212 0.163556963
-0.470353901 0.211921006 -0.513974965
-0.380707234 0.264360547 -0.475233585
-0.000437608 0.118647322 -0.007936045
0.025895158 0.014426474 0.065165445
-0.027220927 0.067112662 0.082773410
-0.335677207 0.096156225 0.230773821
-0.464854628 -0.089303516 0.143809691
-0.484246582 -0.026589153 0.182382360
-0.138608560 -0.093938224 0.269909590
-0.108819075 -0.055581588 0.277402192
-0.116086699 -0.118787095 0.307517290
-0.410041243 0.087644361 -0.159092128
-0.128858253 0.132368073 0.051061213
-0.000845126 -0.041544020 0.223221391
-0.351565152 -0.049597606 -0.233226135
-0.213216677 -0.223367378 0.233154476
0.109013095 0.064592808 0.072800823
-0.434704155 0.090515822 -0.399295330
-0.443723977 0.210577473 -0.278314322
-0.392620564 0.320165247 -0.211269870
-0.200906515 0.456911385 0.261002183
-0.561690032 -0.068552777 -0.008394937
-0.177780196 0.028092146 0.084361047
-0.568684459 -0.067571260 -0.022727007
0.319061279 0.090849377 -0.015323632
-0.092630491 0.092449009 0.105257094
0.018051783 0.016796492 0.060218591
-0.059726782 -0.130958200 0.124562912
0.184145123 0.022360027 -0.001715303
0.183845058 0.041205898 0.016737176
-0.049950540 0.198163331 -0.072498590
-0.245085180 1.688190341 1.126721978
0.066886991 0.012369557 0.069970235
-0.345415056 -0.052645188 -0.225760922
-0.217680335 -0.205877364 -0.302893996
-0.178581908 -0.112042412 -0.098828778
-0.272665113 0.336367548 -0.146079689
-0.275829136 0.018470507 0.114737481
-0.453235626 0.094805591 -0.412813038
0.440164119 0.084831581 0.035879426
-0.078229122 0.116887629 0.071188487
-0.038058057 0.184712112 -0.117132008
-0.136851728 -0.197846532 0.249019206
-0.281134814 0.303172171 -0.168029413
-0.652404606 -0.304334044 0.160007477
-0.366035223 -0.257649183 0.246057197
-0.403004646 0.130895406 -0.429085135
-0.209461823 -0.044578057 -0.318521947
-0.146676466 0.179542556 -0.156874642
-0.134193897 0.384711087 0.154054806
-0.062296785 0.119871110 0.229235917
0.244792819 0.121781841 -0.045489237
0.038400572 -0.117954537 -0.244428247
-0.005810534 -0.054029696 0.140192449
0.350218892 0.123093650 0.098704793
-0.055429161 0.200496346 -0.022915088
0.145294517 0.216806412 -0.227859870
-0.130485907 0.012201276 0.165129185
-0.190434605 0.020916825 0.046233460
-0.137683228 0.028030584 0.172992304
-0.180101886 0.019044448 0.171883523
-0.116823271 -0.003362011 0.077780686
-0.389230579 0.117780522 -0.402956605
-0.029875407 -0.057153728 0.133932546
-0.410165846 0.212474808 -0.325256616
-0.139174610 0.056443200 0.061721876
0.009208009 -0.100216776 0.181500837
0.326631099 0.128683582 -0.050360475
0.909262836 0.325660259 -0.359558433
-0.228096619 0.099663921 0.255227894
0.099946178 0.020623133 -0.006112553
-0.355512440 -0.314769030 -0.065283924
0.028889235 -0.130232751 0.245023981
0.281902313 0.067787856 0.095450521
0.024174461 0.014978573 0.061231364
0.254531115 -0.332384974 0.333222359
0.338056743 0.483575463 -0.504826784
0.009660979 -0.019649079 0.072366610
-0.031470623 -0.056983687 0.134345695
-0.036528230 0.029781386 0.033848386
-0.431393027 -0.188971028 -0.105809562
-0.625411391 -1.198633671 0.928907037
-0.050272632 -0.769493639 0.462107718
-0.158016503 -0.125795186 0.248503074
0.019993231 0.031047581 0.068024784
0.885401487 0.250572026 -0.189150006
0.542579472 -0.032687344 -0.232625976
0.046452399 0.248401687 -0.060485482
-1.698971748 -0.781405270 0.354205012
-0.011254874 -0.029828969 0.109796070
0.114414148 0.011873256 0.124076925
0.006893846 0.017796069 0.021908928
0.034990553 0.004822643 -0.002616688
-0.115438581 0.316512644 0.527180195
0.016000653 0.009737788 0.008074367
0.008254191 0.021968367 0.034417178
-0.128115073 -0.051543146 0.001887788
-0.053408150 -0.027608406 0.012984448
-0.036856607 0.024188560 0.042872127
0.014695224 0.025540212 0.054965962
-0.077032737 -0.044935580 0.013521472
-0.015657635 0.005147485 0.027522769
-0.020764204 0.016863476 0.033455864
-0.018967984 0.023633970 0.034573324
-0.051790886 -0.029166592 0.006934918
-0.605734766 -0.138151050 0.085378215
0.133815840 -0.136710927 0.315133333
0.947519064 0.347691298 -0.507809639
0.839768767 -0.198532015 0.197646394
-0.166749194 -2.232791901 1.914266109
0.643977523 0.246191248 -0.489789605
0.434704125 0.088598274 -0.274684876
-0.111198522 -0.081042752 0.046263769
0.426638484 -0.278442413 0.010408395
-0.050535172 -0.240492657 0.429044217
0.168510780 -0.346072882 0.364284843
0.781906188 -0.296684891 0.057227176
-0.138101771 0.077603944 0.103951655
0.417557538 0.042708799 0.069779180
0.387977064 -0.068965003 0.162150219
0.143937126 0.113656498 -0.048374340
0.085168354 0.181850821 -0.040002245
0.019204153 -0.027643833 -0.151913688
-0.191370815 -0.110043347 0.287083447
-0.241588160 -0.021069240 0.105858959
0.109174311 -0.858161271 0.830437362
0.214948773 -0.034583129 0.261448264
0.062845938 0.010759702 0.067151681
-0.113076217 0.123231813 0.085643061
-0.001725784 0.000011321 0.072484829
-0.005895235 -0.292389840 0.313994706
0.120643042 -0.086514562 0.262298316
-1.310419202 -1.068200469 0.760172427
-0.014834299 0.020141270 0.031837884
0.348950922 0.007536183 0.076979823
1.140639305 -0.362078756 0.017989345
0.009155266 -0.041373450 0.117856458
-0.075799666 -0.488566339 0.478634477
0.912681401 0.167518750 -0.161575660
0.219208732 -0.735494256 0.449482054
0.477410764 -0.045797050 0.275501490
0.461991936 0.059272982 0.144945502
0.229649842 -0.128109902 0.314052641
-0.020782752 -0.247517616 0.371009380
-0.006389213 -0.038182102 0.117317751
-0.006441390 -0.038150650 0.117394783
0.730729699 -0.110542364 0.146041572
0.663844049 -0.211548910 0.358555824
0.783908069 0.405686021 -0.662777543
0.458933711 0.598748028 -0.732688785
-0.019502709 -0.058989946 0.136873603
0.071102582 -0.135408416 -0.219723046
0.717027903 -0.214015439 0.396393597
0.047312442 0.198494419 0.539567590
0.807426214 0.158352122 -0.105677456
-0.040595721 0.189872012 -0.122876614
-0.057565510 -0.083421983 0.162415385
0.336478859 -0.239848807 0.020402649
0.331595123 0.022499202 0.061570480
0.272724122 -0.200032443 0.025531143
0.054959867 0.175809070 -0.100838050
-0.083135739 -0.186809495 0.248863846
0.335054100 -0.252935141 0.046364807
0.244659990 0.129330754 -0.047452115
0.784817278 -0.238917992 0.111913584
0.229021356 -0.276781887 0.020828770
0.149813846 -0.199990690 0.328610539
0.233627126 -0.134734124 0.262355775
0.814189076 0.161597475 -0.115251847
-0.011299852 -0.061122797 0.139762372
-0.121342249 0.008438002 0.071837105
0.504213095 -0.144653305 -0.130823046
-0.196117699 -0.174226359 0.192745790
-0.323136538 -0.111111067 0.291503012
0.115842909 0.050216749 0.035206940
-0.081164479 0.069149278 0.280940950
-0.057808977 -0.083258331 0.160259724
0.194006473 0.072552212 0.140640989
0.726866722 -0.112390302 0.032460008
-0.036303136 0.187158823 -0.120038129
-0.192357302 -0.000362726 0.078937307
-0.026778640 -0.138268024 0.132068649
0.050115511 -0.243862674 0.223706514
0.107885957 -0.282321721 0.266488940
-0.192013010 -0.034632333 0.093661189
1.316705346 -0.289451182 0.139670417
-0.212410763 -0.066743672 0.074248850
-0.128951490 0.014349807 0.057499725
0.200616047 -0.322797835 0.141141623
1.729706049 -0.527755260 0.489483476
0.053023454 0.132267028 -0.070326485
0.211262822 0.007869842 0.239275262
0.377914608 -0.083744548 0.166131452
0.347647130 0.012552809 0.202755749
1.389668226 4.214341164 3.805738926
0.488862157 0.080922976 -0.004015819
0.124732755 -0.073735014 0.183505416
0.246379733 0.127736256 -0.048393007
-0.030158522 -0.053473786 0.131314993
0.004548620 -0.015922137 0.092040807
0.002064410 0.026382308 0.053397946
-0.010730124 0.504700243 -0.555374265
-0.241418257 -0.009096382 0.012076280
0.371165454 0.084377207 -0.000103125
0.941447794 0.530356586 -0.521474779
0.222472027 0.121946469 0.084476732
0.244125113 0.168583602 -0.129043952
0.304944247 0.136451110 0.077542469
-0.113898098 0.031037740 0.042977996
0.244914129 0.120255895 -0.045797739
0.234847873 0.140854806 0.061267357
0.239567995 0.067059048 -0.002565427
-0.051305901 -0.020300513 0.219472587
-0.000864655 0.002629246 0.065852113
-0.176507220 0.022818094 0.036161512
-0.008979411 0.207806319 -0.028107891
0.974771559 0.450966477 -0.649036765
-0.026350589 0.268001705 -0.554592729
-0.061715890 0.185912281 -0.123722665
1.179958463 0.663891494 -0.933324814
0.145922691 0.091427125 -0.479852706
1.431960344 0.714760244 -0.990877748
0.278159738 0.078914702 0.134018794
1.660203934 -0.228539214 0.385010481
0.487195283 -0.060777079 -0.197841272
0.444976091 -0.000522597 0.091151111
-0.131924108 0.140768722 -0.523253143
0.351966888 -0.022437366 0.232019082
-0.154367134 0.066402622 0.123913154
0.174026743 0.046681374 0.163926095
0.002811781 -0.077750579 0.189493373
-0.048925944 -0.653166056 0.642779171
-0.115355350 0.025721334 0.048118815
-0.068754174 -0.059983093 0.151372731
-0.128656521 -0.075436838 0.205134585
-1.293259144 -1.207005858 0.772084534
0.121506713 -0.344785720 0.311177880
-0.148545161 0.067818224 0.176002309
0.170302138 -0.149392977 0.020091206
0.142443568 -0.024019942 0.184626848
0.006487332 -0.115187295 0.110947162
0.065991618 0.011475289 0.070960566
0.179969475 0.049943294 0.164877042
0.017170845 -0.047489215 0.198691830
-0.000636239 0.005575710 0.064232990
-0.052396145 -0.006992359 0.227346539
0.315044671 0.176044405 -0.163082480
0.018742405 -0.022790598 0.100921027
-0.021275641 -0.036724549 0.115137957
0.129512653 0.070182145 0.061441038
-0.009481804 0.201377258 -0.028138993
0.319666088 0.026521340 0.193053633
0.667921662 0.098291755 -0.034484193
0.287997395 0.078358941 0.080068387
-0.360326678 0.316828996 -0.481427729
-0.115390338 0.064861767 0.006091166
0.176112577 0.175600946 -0.135188460
-0.058528975 -0.083494760 0.160265625
-0.401050031 0.383837759 -0.342712760
0.274459273 0.077062458 0.133948490
0.274073482 0.237297282 -0.053248491
-0.026756749 -0.058366638 0.136219174
0.049042571 -0.083383575 0.188372150
0.016803997 0.161768273 -0.096105963
-0.204895750 -0.030280676 0.101435192
-0.131246701 0.172958151 -0.143846869
-0.186933696 0.633215010 -0.796224833
0.166504934 0.097443365 -0.046652548
-0.579490423 0.129510641 -0.334567189
1.062375426 0.345957011 -0.385806233
-0.012332510 0.111618601 -0.414358348
-0.066044815 -0.047859162 -0.099975161
-0.119348392 0.081763685 0.112808637
-0.143340424 -0.278089672 0.390069753
0.055397682 0.037761163 0.061978932
0.031464092 0.027834589 0.107087545
-0.663817048 -0.555679083 0.356864154
-1.027504802 -0.691068053 0.583109617
0.019868650 0.043575466 0.075297281
-0.182926193 0.061929598 0.127601132
0.114810564 0.615296960 -0.638871253
-0.166950434 0.024464967 0.044272169
-0.776466489 0.296673894 -0.631621957
0.097372927 -0.129722908 0.189062759
0.247621387 0.029411932 0.100691818
0.059632611 -0.094215810 0.192184538
0.069986641 -0.137179688 0.178605869
0.053710476 -0.139397234 0.126719460
0.063867234 -0.094978698 0.178422987
0.021944821 -0.096703313 0.165688679
0.069540419 -0.137275487 0.178375557
0.047109686 -0.134109929 0.119545057
0.054581486 0.058678802 0.134170592
0.184379429 0.180697531 -0.095502034
-0.130726218 0.102931879 0.004093735
0.562582970 -0.033609927 -0.242066085
0.013380044 0.179438129 -0.108732551
-0.229802430 0.393623203 -0.633496702
0.010425751 -0.030433167 0.088642433
0.758181453 -0.055751115 0.226573706
0.058375299 0.037136715 0.087215230
-0.534114540 0.380444765 -0.358890146
-0.020253403 -0.055695724 0.127140716
-0.495691806 -0.080608942 0.153572887
-0.651123941 -0.398934066 0.121149465
-0.039037108 0.201070085 -0.140100598
-0.288585097 -0.143581554 -0.145248190
0.027203677 -0.050246436 0.216527775
0.053741679 -0.057216175 0.186838701
0.048659030 -0.082374737 0.190695554
0.034849573 -0.061456453 0.213684753
0.056358963 0.559785187 -0.845964193
0.054862168 -0.112004578 0.152608633
-0.785891831 -0.460676759 0.258194387
-0.378229558 0.242152005 -0.227761984
-0.070041768 0.313247114 -0.591664433
-0.428752571 0.159296796 -0.298939586
-0.195051461 -0.282437325 0.223087281
0.007157155 -0.097673222 0.180060625
0.021123892 -0.082650341 0.044149105
-0.011258486 0.017007498 0.024153074
-0.147608653 0.086261794 0.031496845
-0.033835877 -0.036532469 0.003863365
-0.005941503 -0.016367743 0.001726915
-0.047180343 0.038213648 0.162291005
0.041793365 0.019440161 0.100572504
-0.050553262 0.040912744 0.173716977
0.038628489 0.018078871 0.092851557
-0.072496288 -0.160486832 0.186945125
-0.057246190 0.196875304 -0.056862641
0.056166586 0.073868729 0.133937761
-0.006897883 -0.058882501 0.137906283
-0.479814261 0.319074512 -0.309170663
-0.012443891 -0.045967493 0.124742486
-0.174153075 0.061276190 0.127567172
0.252744853 0.122181140 -0.048847437
0.029371539 -0.029386984 0.091681175
0.320297599 0.088605791 -0.011413871
0.282144547 0.095377520 0.114663437
0.180861890 0.047957480 0.167528033
0.152047649 0.086794682 0.019936400
-0.180003703 0.042540047 0.097446240
0.183185399 0.084752940 0.067290425
-0.539117217 -0.093166500 0.083518274
0.141268671 0.109483123 0.009877750
-0.102675922 -0.111241907 0.111119606
-0.024903500 -0.047652006 0.132143587
-0.262727499 0.512478292 -0.584972084
0.121325098 -0.104975387 0.000828393
-1.190786481 0.037258696 -0.210527837
0.057299647 0.136979252 -0.072350584
-0.082351819 0.070030183 0.077497385
0.312886178 0.028975153 0.154183239
0.024101295 -0.112527654 0.245909736
-0.063398637 0.250525028 -0.086037323
0.194124386 0.198992223 -0.109968707
0.124658227 0.170413494 -0.077891476
-0.424583703 0.280230045 0.207879007
0.239753261 0.143637240 -0.131424040
-0.021537887 0.155672848 -0.094482630
-0.270714015 -0.055410437 0.097227253
-0.057966948 -0.083480693 0.160134256
-0.245701268 -0.057024702 -0.318610787
-0.145636305 -0.158957377 0.210692719
-0.139030889 0.212862670 -0.077775024
-0.277112424 -0.137502089 0.249859527
-0.450375259 -0.108551599 -0.191108838
-0.194045514 0.061604474 -0.334628791
0.058036670 0.035537813 0.088133939
-0.221335307 -0.022503788 0.096622549
-0.242037460 0.010674025 0.130052596
-0.159864351 0.305085570 0.327221721
-0.654670835 0.169474050 -0.467256665
-0.133842081 0.028685732 0.048563384
0.042955980 0.578925550 -0.869502246
-0.116455875 0.072865792 0.113594800
-0.946938515 0.083326943 0.072997861
-0.300677836 -0.121617973 0.229559004
-0.237496153 -0.028485233 -0.009760921
-1.015204668 -0.117245860 -0.218204275
-0.420782506 0.236245334 -0.223733515
-0.276528209 -0.136291981 0.248339891
-0.176761538 0.017290093 -0.336325675
-0.363613397 0.279179513 -0.426001281
-0.224396259 -0.035315629 0.004285776
0.486815631 0.024565490 0.075394988
0.191498816 0.416005045 -0.741077840
0.189588293 0.011227591 -0.130237073
-0.097547621 0.204803437 -0.137044236
-0.178147331 0.213559106 -0.102013461
-0.372048974 0.081045322 -0.162971243
0.122478716 0.160296917 -0.069607787
0.102721572 -0.093660928 -0.033406232
0.317459464 0.087719478 -0.011840348
-0.110269397 0.087162681 0.068418108
-0.119257867 -0.182737067 0.297591150
0.339676559 0.149102151 0.060244914
0.121185675 0.064593822 0.102746129
0.217177778 0.047447570 0.050177097
0.137563244 0.099271983 0.092995368
0.007585441 0.007028926 0.011254976
-0.003389667 0.004634921 0.079543807
-0.118849784 -0.000657606 0.076253012
-0.155079395 -0.221629113 0.223003298
0.353771478 -0.020964323 0.233903706
-0.001963658 0.000155735 0.072427392
-0.006046523 -0.008932832 0.088754550
0.079356566 -0.106631510 0.038533956
0.757783473 -0.133116201 0.321012229
-0.128971219 0.106002718 0.036990251
0.129700661 0.147365332 -0.062979728
-0.806022048 0.330350161 1.057013035
0.008051989 -0.099560574 0.179323912
0.694759905 0.354158401 -0.575748444
0.488293052 0.222366750 -0.197219640
0.001027199 -0.021889010 0.095332623
-0.057983346 0.227342486 -0.110707752
-0.035577822 -0.055333253 0.183471829
0.251867294 0.090426274 -0.018142570
0.014073992 0.321603537 -0.356577724
0.019558113 0.013616710 0.021370105
0.076088212 -0.348017365 -0.017819690
-0.048265763 -0.018584345 0.207886070
0.417894602 0.042962056 0.068685353
0.590563297 0.135979488 -0.028433582
