ply
format ascii 1.0
element vertex 523
property float x
property float y
property float z
end_header
1.672177672 1.646180868 2.054960012
2.620047092 1.412656307 4.059602261
0.288481802 -0.000984446 2.043446779
0.227270678 4.745499134 2.104444265
-11.802094460 0.170693427 7.155492306
7.515035629 -7.636547565 5.523402214
2.612903833 -7.505886078 5.026617050
3.319715023 -1.461011529 5.535203934
4.869453907 -1.323904037 4.186897755
4.473886013 -1.501278520 3.960737228
3.695670128 -1.437379360 3.972284079
1.807887912 -0.134654835 3.199455023
6.676256657 -0.698031306 6.589379787
1.857960582 -1.101645827 4.107674122
1.662503600 -1.398862720 4.037763596
1.309293628 -0.173856199 3.420331717
2.835702658 -3.628901243 4.933118820
5.715444565 -4.378533363 3.964650393
3.798501492 -2.386223793 3.635791063
2.177569151 -3.420193672 4.265970707
1.809868336 -2.346138477 4.974625111
1.086938739 -2.053549528 3.667096615
5.177104473 -0.237345681 2.941697836
7.823079586 -3.855141878 4.600744724
8.917962074 -4.149638176 4.203796387
-5.022194862 -8.752503395 4.882682323
-0.221536279 -0.360902727 2.483801603
-0.488517404 -0.261602938 2.471535444
-1.371250033 -3.300414085 3.935411215
2.451285362 -2.271752119 3.826548338
1.167358637 -3.763465881 4.153815746
-7.414907455 -1.365563273 5.161484241
3.496968746 -1.727676630 3.588359594
3.712207079 -3.493760824 3.953283072
6.508957863 -5.856400967 6.675261021
1.809204340 -2.271175385 5.087339878
5.506189346 -1.013115525 4.415590763
2.773115635 -2.346773148 4.399856567
2.232563972 -1.648068190 3.226084709
1.581149817 -0.480022907 3.202979088
0.937018573 -0.667602897 4.000152588
-1.064977646 -0.102888338 2.864930153
7.587238789 -1.114070296 3.726879835
5.296832561 -1.518234015 3.889281273
4.989184380 -2.354107141 3.755377531
-0.231705070 -0.108384557 2.727401257
-1.746406317 -1.811273575 4.771744251
-1.809460282 -1.469440699 3.808550358
12.427429199 -3.770329237 4.001364231
10.640067101 -2.270075321 6.304174423
4.714684010 -1.332994223 4.177210808
4.839835167 -2.350738525 3.756129026
3.152912378 -1.766683102 3.442775965
3.580880642 -2.202045441 4.934862137
5.966167927 -4.998260498 7.100802898
-0.759378076 -0.251136690 2.482862949
-2.125959635 -1.772122741 6.566403389
-6.581120491 0.821235538 5.628931522
-14.236291885 -0.014131090 7.251052856
2.309975147 1.216206193 1.711595774
4.331570148 1.378580570 0.157224596
1.202887774 0.440038949 2.096403360
1.742340326 1.575056314 2.097933292
0.726597309 -0.489328563 1.712655306
1.379958630 -0.836573601 1.814366698
-4.917068958 -3.458820343 4.117393970
3.459913969 -0.708135486 0.285865635
2.122204304 -0.170069441 2.206601143
1.576125622 1.358668208 2.220536709
0.160031319 -0.132815138 1.002608895
0.057161018 0.160859764 2.517365217
-1.108491421 0.181648955 2.483525038
-1.344933867 1.044057608 1.184043884
0.730797410 2.220242262 2.481935978
1.769475102 1.836646199 2.036541939
2.308913469 1.199960828 1.716765761
2.381365776 2.088149309 0.167192951
-0.996545076 -0.208277732 2.622494221
2.373506069 1.818989992 1.338596463
3.286912680 0.120273851 1.455950260
2.291467667 -1.453354001 0.897782326
2.374472141 1.901476979 1.257682443
2.460267782 1.350910068 0.112540752
-0.774142623 2.539089203 3.029868126
0.418922693 -1.099798441 1.156649828
-0.975869358 0.782871544 1.924578547
2.378241301 2.102614403 0.194811568
0.854086876 2.627549410 2.904768944
2.130924702 1.732078671 1.703180671
0.177448750 -1.078497887 0.872766495
-0.921575069 0.729253948 1.815867186
-18.601877213 -2.500416279 0.954689920
5.590027809 0.253539294 3.266743183
2.183458328 -0.617712319 2.012974262
2.304387093 0.296436787 2.878716946
0.059432231 0.145272836 2.315232992
-1.313021898 -0.129123777 2.399075031
2.292785645 1.240909457 1.718436718
0.916745961 1.062255025 2.591288805
1.248289943 2.002583742 2.525951624
2.371175528 2.104347944 0.176725507
2.381044865 1.929669976 1.213890791
0.048595734 -0.887196541 0.941769660
0.673200607 -1.488342047 1.598586679
-0.965072155 -1.904278040 1.640873551
-4.189078808 -1.703888535 1.093411088
-0.847573519 -0.008173896 2.199606180
-0.942178190 0.164914891 2.082019091
3.789248705 1.337944508 0.136559486
1.741816044 1.660958171 2.090420723
0.773734391 -0.084692724 1.396237731
1.618732214 0.041879233 1.025372028
0.967079878 0.358078390 1.709734201
1.533908963 1.314967036 2.244723320
0.897592425 2.599478960 2.854967594
0.151261762 -0.260385752 1.257853985
0.178800672 -0.139065430 1.074743390
-0.387312829 0.801136851 1.510298133
3.116944313 -1.090244412 1.866808295
1.465447187 -1.767059922 1.759258747
0.838767946 0.978887737 2.399432421
2.281569242 1.229743958 1.730201244
0.717315137 2.079533815 2.316800594
3.155375004 2.840037107 0.256062359
-0.942294359 0.785493731 1.852737665
2.376666546 1.935840726 1.215251207
0.137691408 -0.004482092 1.170660377
1.730409741 1.649322391 2.101442575
0.067893907 0.185033351 2.662450314
-2.095823765 2.378594637 6.048228741
0.020421596 4.891609192 2.403112173
-9.161589622 -3.601050854 2.217083931
-1.019087076 -2.910231829 1.905902147
5.924654007 0.395879745 2.629217386
2.117119312 1.680582762 1.738248706
1.981745481 0.177918553 2.407432556
2.707250595 2.425980091 0.235262468
2.040582895 1.645003438 1.016455889
2.587979317 0.596068501 1.974936247
0.456120819 -0.634457529 0.888921738
2.326157093 -1.567001343 1.024974227
2.139581919 2.055352211 2.581275463
2.389936924 2.013777018 1.079439759
0.913796067 2.566800356 2.841190577
0.395728648 2.154816628 0.947873116
0.676529348 4.329936504 0.940354884
-1.094201684 -0.104000323 1.979906082
0.332152069 -1.010383964 1.041464806
2.570119381 0.596303940 1.963992357
2.356440544 2.129126549 0.194327280
1.221813440 2.070709467 2.549754381
-0.664570630 -0.169891268 2.118516922
1.272573471 -0.120021872 2.326574087
2.382077217 1.960473537 1.174050212
1.960004568 1.923185945 2.392947674
0.780973971 0.915925503 2.283521414
2.362897873 0.199499652 2.853862524
-0.969998300 0.826668561 1.901021600
-1.080036640 0.947067916 2.077767372
3.980383158 0.390112966 0.569057107
2.354515314 2.136919975 0.208935633
1.364024520 0.694358110 2.812352419
0.898624361 1.057383299 2.602585077
1.327666759 1.118697286 1.970992327
1.436027884 3.663242579 1.648558736
0.975425124 3.725971222 1.933499455
2.388149023 1.957888603 1.164500952
-0.039202902 -0.017398968 0.210145891
2.922572374 1.778778553 2.008095741
0.284998178 0.005882462 2.046514034
-0.907599986 0.122728445 1.977528453
1.256353140 -0.130040810 2.277935982
-0.520056546 -0.185704738 1.736805081
0.330977231 0.917355597 2.108963013
1.078626513 1.601459742 2.252048731
-0.553966582 1.204522729 2.054208279
0.794133782 2.698305845 2.967346191
0.645811021 2.804633856 2.985520124
-0.618513346 -0.650603533 0.773362517
-1.662850857 -0.026008232 0.665180206
-0.162951127 -0.206162244 0.738378644
-0.126958832 -0.161849350 1.130349040
3.431804419 0.393535823 0.032292847
-0.603775680 -2.321162701 1.174693823
-0.434532434 1.265285254 1.526610851
1.413106441 1.254361629 2.366939068
2.618759394 -0.156287491 2.554450274
1.150582671 -0.748233080 2.595220089
-0.657976449 -2.521418810 1.243303776
5.006706715 0.279018849 2.149327040
1.240986705 3.643232822 2.001713991
-0.745537519 2.363712788 2.828933716
-3.954063654 -0.694184721 0.770291328
-0.674823523 0.124234706 1.533409357
1.527938008 1.317487240 2.309974670
-1.072009921 3.510801077 4.113346577
1.361811042 3.792204618 0.584811389
2.134137154 -1.239551663 1.237119436
4.586681843 -2.472894430 2.031827211
4.599124432 -1.999329209 1.492271900
0.546118259 -0.093690030 1.483801365
2.331432104 0.263322532 2.847967148
2.269571543 1.151386619 3.492618561
1.245448828 3.635965347 1.999406219
1.426661372 3.687983036 0.557291508
0.227555886 0.019049576 1.660258770
-3.926965475 4.596399784 11.973247528
3.031767130 -0.774903834 1.913022399
0.063113362 -0.084295481 0.202647954
2.196551085 -1.020118356 2.239089489
0.430404186 -1.500659585 1.550640702
0.047043342 -0.482640326 0.753051341
0.232636034 0.018112982 1.704137564
-0.766626716 2.583921909 3.022867203
0.494284242 -0.227196500 1.229175329
0.888854504 2.483929396 2.751669407
2.914613008 -3.196220398 2.607909918
1.836612225 -3.241298437 0.183301732
1.007048726 -0.162451416 2.064323664
1.615198016 1.361788034 2.374277115
2.611498594 0.171496108 1.866621494
0.857182682 2.392213345 2.650498390
0.799600840 -0.149550334 2.288169384
2.911825180 -0.741658151 1.849102497
0.817142189 -2.208113194 1.445477366
-1.062723279 0.183901161 2.725026369
1.915290952 0.328632444 2.457235575
-0.272318274 -0.382892519 1.093674302
-0.526293218 -1.765132666 1.638032079
3.851948261 0.486143768 0.292076141
0.969193876 -0.111921020 1.792878866
-1.769642949 -1.123649001 0.796637356
-3.240551472 -0.203820586 2.609495878
0.783328295 -0.107372627 2.039448261
-1.314778566 -0.105368793 2.318013191
-0.512004077 -0.016258691 1.446736693
-0.170585990 -1.788792729 1.207319498
0.544785023 -3.003062248 1.423853874
0.291416466 -1.947962165 1.603300214
-0.903134406 -1.282224059 1.591679931
1.092316628 -0.096162722 1.980586767
5.564547539 0.444721520 1.017849207
-0.232092097 0.622129321 1.061418176
-1.323970318 0.006116560 0.654697776
0.025152406 0.093724973 1.544705391
0.940459609 3.541334152 2.094579697
-0.332692862 -2.739065170 1.798228025
5.959095955 -0.724774837 1.141898990
-0.919458866 -0.691118181 2.082376003
-0.736157656 -0.177888006 1.990939021
-3.232430696 -0.469275326 2.794876099
3.824367523 0.175122425 0.837960124
-0.243244931 0.653926313 1.115636945
0.509573638 -2.745360613 1.287703633
-0.662202716 -2.534987450 1.285603046
4.654064655 0.230529830 1.020302296
-0.013391003 4.373609066 1.440813899
0.871479928 2.407621384 2.659040928
2.302755833 -4.027148724 0.169605538
0.187202588 -0.139253691 1.167418361
0.262765437 -0.716529608 0.975610793
2.102725983 1.641347885 1.696805000
2.325487852 0.616465271 1.752707481
0.602730036 -3.165603638 1.506923079
-0.301514983 -2.405014753 1.594686985
-0.820711553 -3.076200008 1.555118561
-1.118462801 -0.098509446 1.955392003
-0.501599193 -0.065594465 1.578309774
1.321453571 3.447595835 0.494459659
-0.693722188 0.595289826 1.345729232
-0.141814306 -0.065024130 0.361701608
0.382282943 -0.530196846 0.304046571
-0.440183401 0.275985509 0.367781311
2.667266846 -3.853105068 2.432152271
-0.566042900 -2.878744364 0.879349589
3.044328928 0.297306359 0.522882581
-0.564210773 0.112778321 1.270941854
3.465285301 -3.796185017 0.899108469
-0.102234833 -0.215001360 0.427074105
-0.042968992 -0.450048655 0.488101751
0.028139053 -0.464105576 0.541701555
-0.410367429 -0.114299119 0.461939752
-0.163533628 -0.325173348 0.487130821
-0.108204179 -0.397417098 0.484778166
-0.114481434 -0.130601421 0.351291627
-0.414534688 -0.112136215 0.469139040
-1.242334008 -0.253136486 0.252163708
-0.075043209 -0.040603790 0.275137603
0.431547433 -0.578249037 0.634514928
0.670947313 -0.566821516 0.467802942
-0.026115702 -0.058358759 0.192857891
-0.369758397 0.221959144 0.326405555
-0.200448170 -0.608595431 0.461911082
-0.044427358 -0.168301404 0.372112423
-0.109576315 -0.186571941 0.398741931
-0.254774064 -0.323026955 0.485978037
0.227143303 0.069914572 0.560389221
-0.036795348 -0.150071710 0.328864306
-0.113297187 -0.255194098 0.387767166
5.437531948 -2.865257263 1.552395821
1.191717744 -1.510126710 2.177491188
-0.250473231 4.591602325 2.744476318
1.366920233 1.174622416 1.308373690
0.475965798 -1.270794988 1.642358780
-0.315905303 0.696860909 1.228483319
2.669395685 -1.642314553 1.058710933
-0.614980996 -1.063928962 1.468977928
-0.230712757 -1.068755865 1.249487638
1.850472331 -2.559789181 1.676565766
0.184643507 -1.089354038 1.257634282
-0.420514107 -1.386292338 1.335797787
0.012657831 0.495341599 0.972019851
-1.230709076 3.343987942 3.643461466
-0.282792777 4.616534710 2.790626764
0.326124310 -2.054379940 1.557800174
0.871785402 -2.486560106 1.647759676
0.438413680 -0.314774007 1.838384748
-0.118837349 -1.717410564 1.552210212
-0.260410964 -1.184790969 1.376573205
-2.381922722 2.913160086 7.404426575
-0.075420618 4.498565197 2.331850290
0.807667851 -2.313343048 1.543897629
-3.186445951 -0.458952487 2.754499435
-0.048003789 -0.897950947 1.121837020
0.728901267 0.271446764 1.330301642
-0.956451416 -2.664634943 1.684423089
-0.241866156 -1.937924623 1.287736177
0.303891331 -1.067995548 1.093245387
-0.222311094 -1.074094176 1.249702692
-0.938589096 -2.016687870 1.685454845
-0.040966664 -0.632172108 0.916142941
-2.646230936 0.399838120 0.284467787
0.192313224 0.163702741 0.610593498
0.134627953 -0.285131514 0.516664267
0.004152426 -0.234611973 0.439188808
-0.016118450 -0.193957835 0.426019698
0.190407172 -0.579938471 0.557182670
0.048803881 -0.245110631 0.464002401
-0.528539836 -0.086016744 0.542216897
-0.507770836 0.003298874 0.576263905
0.002706815 -0.227945969 0.421725184
0.002730709 -0.536302686 0.558271706
-0.117429681 -0.140901163 0.374346882
-0.128803447 -0.207155794 0.435425818
-0.227940470 -0.185934901 0.443894446
-0.140697882 -0.761862755 0.320908308
-0.161016241 -0.337132722 0.488194853
-0.019780261 -0.338643223 0.512915194
0.114056185 -0.079953037 0.459716678
0.147782445 -0.258087754 0.395917922
-0.018097429 -0.394050151 0.531294763
-0.220517382 -0.518227994 0.498727798
-0.114811011 -0.085965373 0.361431658
-0.179501951 -0.153535679 0.425894707
-0.247424677 -0.197830349 0.468300641
-0.071129747 -0.386541069 0.494208038
-0.214996427 -0.509045601 0.490028739
-0.164582640 -0.341604084 0.508773148
-0.144857034 -0.135878831 0.372756004
-0.525623143 -0.126965299 0.568465352
-0.058533404 -0.066311203 0.256288737
0.540068865 -0.221673995 0.535069466
-0.005961847 -0.141358927 0.315695167
2.284928560 -0.682783961 0.395520896
-0.364469290 0.284020752 0.549103677
-0.176880196 -0.420659333 0.422838748
-0.046628896 -0.472432107 0.516900837
-0.155298859 -0.064467520 0.378233224
-0.135194629 -0.063415386 0.343996018
0.085709304 -0.317505181 0.378853858
3.232084036 -1.241187215 2.903788328
1.289421439 0.627955079 2.013255119
-1.181592345 0.027805824 0.586504638
0.278594375 -2.562033176 1.205245018
2.902085066 -0.121584445 2.765592098
6.231211662 1.836456895 0.152125105
1.837707996 -1.058757663 2.436783314
2.650685787 -0.896481931 2.381836414
2.707080364 -0.809193492 2.407110214
-1.268170714 1.477424622 3.764149427
-0.467515439 -1.528025150 1.483065248
0.313635141 -2.855192900 1.342147946
2.188931227 -1.385536790 2.106338263
7.775986195 0.435338020 1.475518465
-0.292254418 -0.196783364 0.420090526
0.364960194 -0.352688074 0.579784036
0.718001604 -0.256680757 0.288912416
0.423543572 -0.498912722 0.457108170
0.710099995 -0.306158096 0.463748366
-0.157223567 -0.513432324 0.404674411
-0.231544182 0.160574391 0.387768418
0.541540086 -0.252377838 0.390604705
0.776690185 -0.102644861 0.303105980
0.716966391 -0.136610314 0.471061498
0.300948113 -2.427811146 1.150508404
2.346062422 -1.700740695 1.894341946
-0.842484415 -0.594076335 1.840441108
0.574421763 -0.749657452 1.577214360
-0.956068099 1.493602991 1.760169029
0.356701612 -0.679204881 1.196247935
0.799872875 -2.232482433 1.465710640
2.491553068 -0.312454909 2.488898039
-1.477487564 -0.701681137 2.082524538
1.927284837 -2.065985441 1.647474170
-0.284595162 5.564195633 3.357095003
2.481208086 -1.190421700 1.892559052
1.614044905 -1.305793047 2.028363705
1.440706134 -1.343423724 1.518210053
0.099445052 -1.293504357 1.382514596
1.531703234 -1.718011737 1.833885312
1.800709844 -2.378002167 1.461119294
1.898862720 -2.028540850 1.648575306
1.717794657 -0.986749172 1.892165184
1.959724545 -0.949088931 1.526688337
1.350188375 -1.437617421 1.856285691
-0.914900243 0.719811797 0.720956385
1.007419229 -0.852788448 1.971605420
1.854383588 -1.879118323 1.855735421
2.734093428 -2.084082365 1.882286191
1.814247966 -0.900856376 1.873205781
1.963969111 -0.669373512 1.768668652
2.285699129 -0.435754210 1.845805287
1.112281799 -1.680884719 1.726488948
1.020015597 -1.207854748 1.728913546
3.590468645 -0.762488186 1.303154707
4.022653580 -0.581716478 1.005525947
2.593780994 -0.266394734 1.371939301
0.179307640 -10.468195915 9.712494850
0.830218256 -0.188413888 1.694308996
2.757910490 -1.570386767 2.069594383
-0.083057493 -0.253048450 0.563115299
4.640009403 -0.750540853 1.198976636
2.246693134 -1.005684853 1.568169117
2.691501379 -0.706720352 2.402551889
-0.762015760 0.677809954 0.868486285
2.377992153 -0.581225157 2.462680817
2.201256990 -1.205333591 1.654083490
-0.418698728 -0.611054897 1.212139130
-0.455399185 -0.491005033 1.244478345
2.200158596 -1.296875238 1.659096122
2.335631371 -1.153091192 1.392065167
1.525662184 -1.713527918 1.863913298
4.503142834 -0.697641432 1.234518409
2.600564957 -0.759963989 2.330376625
2.156824112 -1.622457862 1.772256494
0.683910668 -1.180014253 1.567272544
2.932090044 -0.899652958 0.840171099
2.619029760 -0.176448822 0.681694329
0.139800891 -0.420820057 0.510941565
0.484250426 -0.573622823 0.521467328
-0.089433461 -0.097513936 0.130305424
-0.123154603 -0.131642506 0.360828340
0.794684112 -0.166813061 0.305366695
0.614459336 -0.438405275 0.485718280
0.542034626 -0.232405350 0.417621255
0.458026797 -0.258599043 0.322386563
0.223121762 -0.389946163 0.451701880
-0.209643736 0.076284550 0.248679146
0.235743493 -0.328828573 0.502219260
0.542800546 -0.192324266 0.426044524
0.036908567 -0.478204489 0.450501829
0.256183565 -0.367259353 0.506695986
0.232119992 -0.299694628 0.380246699
-0.096665546 0.036530003 0.228755966
0.511499166 -0.164335564 0.407829642
0.046038721 -0.100839652 0.150070205
1.261000872 -0.410263121 1.014337063
1.495108843 -0.655749917 2.515631676
2.869718790 -1.259572387 4.812798977
-0.248285994 -0.336933345 1.194387674
2.490449905 -1.058001995 4.187025547
1.913184524 -0.482072622 1.149359465
1.974700689 -0.500534832 0.791240513
0.552568436 -1.517587066 1.678757787
2.075156927 -0.740040779 1.078357458
-0.378192127 -0.531550288 1.075137258
1.267363906 -0.731998980 0.618199706
-0.526870489 0.136493817 0.403610200
-0.295316428 -0.421094745 1.466987729
1.829821944 -0.713882148 1.026952267
1.512277365 -1.980049849 1.216157913
2.397951603 -1.417257905 1.606843472
2.037058592 -1.251134157 0.666513443
-0.076967411 -0.052965581 0.148551986
-0.053068556 -0.050964661 0.132351801
-0.068880767 -0.050401475 0.142342180
-0.076907031 -0.053046566 0.148846000
-0.019761547 -0.272085845 0.542524934
1.770128131 -1.832464933 1.963748574
-0.876120627 -0.507701278 1.269816279
1.149689078 -1.355017424 1.479345679
-0.375348747 -0.514550030 1.051719546
-0.116151914 -0.320397168 0.702546477
1.055911899 -1.241381526 1.357495546
-0.350702822 -0.479777932 0.983056843
-1.932113647 -0.887871265 2.187367916
0.070774309 -0.269346893 0.389554530
-0.110240720 0.004324335 0.196681991
-0.014269992 -0.103812754 0.213701397
0.015325041 -0.084592924 0.150851995
0.150603786 -0.458336085 0.552839637
1.359730244 -0.673102021 0.731198967
-0.066219553 -0.873119295 1.130108714
1.062892437 -1.030165792 0.810664594
0.616156578 -1.182236791 1.399776220
-0.531567335 0.031530134 0.236528397
-0.531298935 0.284915239 0.397375762
2.060966015 -0.822188139 1.139258862
0.903315306 -1.096347451 1.200760245
0.801336586 -1.974835992 1.664108634
1.408521891 -0.795225918 0.766520381
1.906439543 -0.727587402 1.132320642
0.357363582 -0.422708213 0.382433981
0.489181280 -0.209133267 0.356353223
0.595702291 -0.159642413 0.339524269
-0.061607871 -0.027156672 0.173986569
-0.063129738 -0.003181945 0.199990228
-0.076090872 -0.165718600 0.335493177
-0.063401304 -0.008803331 0.178996518
-0.060821813 -0.068407968 0.142895028
-0.071860552 -0.282367885 0.237691686
-0.076432109 -0.093145780 0.170091748
0.008160443 -0.124157049 0.184036091
