ply
format ascii 1.0
element vertex 1273
property float x
property float y
property float z
end_header
2.780445814 -0.015697937 -0.720372677
8.646785736 -5.489286900 0.917740524
0.142140597 0.118821159 -0.459395468
-0.299441814 0.771182179 -0.395671368
-1.990653992 1.828591585 -9.937706947
0.592121780 -2.000954390 -0.717598379
-1.745127320 1.649138808 -0.967925966
10.201013565 3.981745243 1.064146638
0.078745633 0.331822127 -0.274154335
0.071138859 0.324046463 -0.271061987
2.299897909 1.845371246 1.421135306
5.915017605 4.363624573 -0.544954598
-1.807463765 1.758324862 -0.305168569
0.395683289 -0.132174805 -0.773787618
1.647844195 2.273180723 -1.049842596
3.918621302 3.499522209 1.270452023
1.352874875 2.223382711 -0.824067056
14.536840439 9.031696320 0.045731831
4.660137653 1.728085279 -0.962707639
0.167056173 8.002758026 1.695511341
1.817004681 -1.335690141 0.008097932
2.197964907 0.511061192 -0.306142122
-0.832040250 3.594716072 -1.570114136
-2.708068848 0.850035071 -1.068227530
-5.459661961 0.821564317 0.513926029
-0.219104663 2.736957073 -1.033680916
-2.275555849 6.276396275 1.737911344
-0.986400783 1.645290017 1.977121472
-1.007959485 -0.915363312 -0.354588389
-2.258460999 2.360392809 0.176153138
-1.924092650 -0.640974402 -0.035044558
-1.442666292 1.899361253 -0.809286892
-0.423730165 -1.257379651 -0.424248874
-0.033659555 0.078650199 -0.357473135
4.783648968 2.186395645 -0.013451801
-0.190158442 0.514179826 -0.405024707
-0.073476173 -0.086628973 -0.396032751
-0.178595752 0.516034663 -0.400902450
2.436508417 0.206667617 -0.912478864
2.957170725 -0.308866322 -0.101712875
0.128881127 0.018344857 -0.404128224
-0.136269435 0.633452654 -0.399491131
3.394220829 3.543941498 0.160223156
0.367417902 2.157714128 -1.103597641
-0.613406241 2.660064936 -0.581170082
-0.245730445 4.068274021 0.016099080
0.315551192 2.444096804 -1.053919077
-0.100872368 2.434298038 -0.760975897
3.299433947 0.553843856 -0.419648260
11.289144516 5.223125935 0.423180133
-0.110976852 3.254844189 -0.292750150
2.216532469 -2.369220018 0.040700149
2.244456530 3.127740383 1.608230948
-0.900525093 1.931351542 -0.387610286
-1.094920397 1.044821858 -0.643883884
-0.071203113 0.590627670 -0.373869032
-4.965739250 0.118889265 0.020178320
4.190656662 -0.764301836 1.594048738
1.913063288 4.023354053 1.719639182
1.286036611 -0.741783798 -0.503608882
3.516798735 -5.156949043 0.694420993
1.282113075 -2.255037785 0.080595925
1.039237380 -1.669078946 0.064597435
-0.114855446 2.806550980 -0.132872984
-2.243521929 2.079277039 -0.120719701
0.542991817 -1.294863343 -0.240139931
4.281576633 -0.664363563 1.662741899
0.377958775 0.519870877 0.223625362
-2.340147257 3.278862715 -0.590898156
-0.892922461 3.268649101 -0.472310960
1.396324754 1.988555670 -0.769199371
5.288297176 3.121924639 1.513871551
0.523386836 2.797066689 -0.281032532
2.392689228 1.460293889 -1.022561312
6.572735310 -0.385549963 0.506933331
-1.047158837 -0.551253617 -0.573690891
-1.471689343 -0.029792780 -0.484811068
-1.479777932 1.561400890 -1.067994356
5.856237888 -3.611074448 1.701758385
-0.324076325 0.526356161 -0.403838217
8.111677170 -6.805033207 1.514523149
3.566361427 0.630601704 1.612695575
-0.019928943 0.459495842 -0.291559577
10.237046242 -11.720763206 0.965189755
1.967769265 2.376027107 -1.012878418
2.632829428 -6.885825634 0.776447952
1.927021742 -1.512164474 -0.125405416
6.168207645 -4.810970306 1.466865778
4.365001678 -3.411236286 1.384386301
6.564172268 4.552811146 -0.669375002
6.932323933 2.203489542 1.400516152
4.275056362 3.418457985 -0.682737052
-2.233052492 -0.707417488 1.567432761
4.357154369 -1.050776720 1.614254117
0.293226451 -1.162178874 0.033645395
2.259321690 -0.687251031 1.774739861
0.043250501 1.599454522 -3.518839836
-0.192058221 1.175335050 -0.601660132
-0.969929636 -0.144476533 -0.986876845
2.672543287 1.632910967 -1.035443544
6.664025307 -1.000624537 0.058145460
3.548138857 0.644787431 1.615154624
1.026763916 -0.081580639 -0.360309184
-1.221394420 -0.066069737 -1.015411019
2.725738525 -0.304546535 -0.088403955
3.194797754 1.008323193 -0.416813105
-1.580433607 0.207776129 -0.328980267
0.004775149 0.466028810 -0.298961878
-0.634689033 0.998985469 -0.468591213
0.077671893 -1.502503157 -0.926741123
1.609660029 -6.667558670 0.479215592
2.313508749 -9.603961945 1.477803826
8.061675072 -5.047794342 1.270368099
5.249653339 1.265335560 0.588597775
-1.682392240 1.481448770 -0.232110918
-0.014709800 0.033417851 -0.409922570
0.288328737 3.055290937 -0.294628948
-1.374363780 3.174154282 -0.458751976
0.552103579 3.146089554 -0.967670560
8.073025703 -5.044309616 0.134134233
0.650844097 -0.256846905 -0.924966276
0.862682164 2.350604773 -1.013683081
-0.049560182 0.262553334 -0.268617541
4.934377193 3.264575243 -0.947667837
-0.670921385 -0.566800296 -0.402466178
-0.605305254 3.132231474 -0.636491895
4.402389050 3.495438814 -0.734608889
-0.067237943 0.076858260 -0.366191983
-0.009919977 0.247770309 -0.252605677
0.741941690 3.666875124 -0.363531649
1.697000623 2.912650108 -1.059783101
1.892668486 2.378700256 -0.488946676
-0.938360810 3.326556921 -1.033657789
0.090331510 0.341851622 -0.289497286
-0.041416135 -0.125642985 -0.418137580
0.004740846 -3.027950525 1.611701846
0.179706514 -3.459077597 1.830026865
-0.322546512 0.543761551 -0.401260197
-0.600653231 -0.426524401 -0.918964207
0.993817091 -3.836816311 2.536275864
-1.957237363 -5.779679298 0.675782263
1.058455467 -1.353680372 -0.445788652
2.807391167 -3.479707479 1.787602901
-1.588721037 -1.386862993 1.654155254
-2.255459309 -4.721187115 1.563759327
-0.799493730 -2.116924524 -0.131801531
1.860007644 -0.468459338 -1.039061308
-0.655311167 -4.443980217 2.224328518
1.719423652 -0.070993513 -0.483502567
-0.521973491 -0.450657547 -1.022363305
8.656138420 -5.536478519 1.400339246
2.957594395 1.789450407 1.588994265
2.105742216 3.434498310 1.603529930
3.030899286 2.187561035 1.707690954
15.302410126 -15.574494362 1.783536673
-0.095578499 0.252254456 -0.398789585
0.511079252 -1.816509724 -0.663664401
3.054767847 1.368760109 -0.378495514
-0.226340011 1.216443419 -0.381157666
50.457221985 30.552074432 -87.578315735
0.518445969 0.258813053 -0.992304087
-0.016765444 0.031273540 -0.410046816
-2.581187248 1.131443739 -0.321712643
2.688994169 1.385551929 -0.375837594
2.842045307 3.269023657 -1.108257890
0.002486084 0.417440474 -0.407782972
3.273224831 -1.354324222 1.072665572
1.788544536 -0.816768110 -0.342244804
-1.167189717 -0.646684647 -1.034325719
0.734821141 -4.548212528 0.066751488
6.221447468 -0.865289569 -0.029694092
-7.526370049 -2.176739931 1.123053789
-0.487969220 3.872292280 -1.494958639
3.758003235 -0.044697061 1.457920790
6.913245201 3.183615923 -0.584069848
5.768001556 0.641389668 0.016326660
3.737272263 0.345081151 1.627620816
2.477047920 1.000778317 -0.352181882
-1.119625449 0.153382093 -0.825702608
1.006537795 -0.107760698 -0.987669885
12.800784111 20.054510117 -7.307446003
0.380046099 -0.337141842 -0.184469044
-1.684608698 -0.443247885 -1.305527568
-4.506854534 3.880743265 1.454456091
0.447473794 3.038661242 -0.019447599
1.640664577 11.603440285 2.987199783
4.699667931 1.633123398 0.967953265
4.565778255 3.802072287 -0.947534561
-1.289749384 2.339782715 0.112277485
2.514330149 -0.478234708 -0.287472039
-5.725495815 -0.657894909 -0.715472639
8.906829834 -34.953125000 17.397321701
-0.129685834 0.643556893 -0.398708403
-6.944453239 -1.627690196 1.219952703
4.944860458 -22.707645416 -37.134231567
3.020001888 0.244343057 -0.479437828
1.884849191 3.474192858 -0.169772238
-2.614454269 1.194019437 -1.058329821
-1.398953080 -0.068608940 -1.017881989
-1.411190271 -0.017563300 -0.644300878
0.082453609 0.332050681 -0.282042921
0.997726083 -0.114518382 -0.984250367
-1.010284066 -1.128564358 -0.431434751
0.094254889 -0.000626062 -0.413176924
8.366000175 6.258198738 1.045411110
-1.318055272 -0.284333080 -0.322030455
0.433311969 0.632233799 -0.379227370
-1.242957354 5.727626324 0.137560442
9.575101852 3.799244881 1.052048326
1.238224268 3.384779692 -0.294146091
0.760845006 2.531086206 -1.012890458
1.297128320 3.978636742 1.387012959
-0.317774266 0.535268545 -0.402329594
4.509887218 0.329490066 -0.161390483
1.222802043 0.368476510 -1.001256943
-0.015234375 0.072893918 -0.403977364
0.931053340 0.733066440 -0.845115185
2.224688053 1.854417443 1.437471271
1.067405820 3.194364309 -0.287553430
4.019712448 1.850295782 -0.500103712
1.182580709 -0.670306504 -0.471739560
0.698338151 2.737380505 -0.644434273
0.179433510 -0.274173051 -1.266292810
-0.081654206 -0.010038029 -0.520172060
8.874471664 3.776419401 -0.717607856
-0.005201846 0.929906547 -0.864286900
5.030277729 4.638378143 1.278551936
-0.111418210 0.145682618 -0.377312958
-0.563068092 2.295038939 -0.699975848
-0.762107551 11.308119774 1.442516565
3.034302711 2.111956596 1.547485709
0.522964060 4.444299221 -0.050102472
0.062503338 0.319571048 -0.375798315
4.220096588 1.930627346 -3.391048908
-0.086661138 0.247964457 -0.400675565
5.888237476 2.724553108 1.752034903
0.326064825 0.130466938 -0.547108531
0.970523298 -0.410350859 -0.425507665
12.440361023 5.068663597 1.114721179
1.695360065 -0.792092144 -0.317295492
1.797356725 0.938371599 -0.433861285
6.365388393 -6.327311039 1.512200236
-0.238477066 2.374583006 -0.510558188
3.078659058 0.908255458 -1.165729523
2.353296995 0.911928475 -0.953739882
-0.128160298 0.771942616 -0.396600813
2.224939108 -6.346874714 1.839572549
2.105246305 -2.401247263 1.078338623
7.133551121 -11.226014137 0.644203126
1.967380166 0.343532920 -1.035168767
2.394268274 1.458205938 -1.043095827
-0.764604330 -0.267653644 -1.039309382
0.000674193 0.449156195 -0.291798770
0.792267144 2.160715342 -0.594405174
-0.932619154 -0.983071268 0.352178067
1.756462932 2.292260885 -0.702964544
2.186998606 -2.319985628 0.051508039
5.120212078 2.429496527 0.138755247
9.223686218 7.240083694 -0.860920906
0.753988326 2.809707403 -0.686443686
3.695166111 0.729516685 1.701014996
5.328419209 1.102576137 -0.236308143
4.777232170 4.290614605 -0.975113332
9.800861359 1.911936045 4.288315296
-0.133941859 -9.607860565 0.827574253
-6.520280838 4.016439438 0.907616973
1.711230278 2.609897375 -0.761429369
1.777194142 2.513644695 -0.888992548
1.542451859 -1.727312684 -0.380279034
6.104057312 5.190917015 -0.587002277
2.184303284 1.452151179 -0.906438828
-0.705461085 2.826120138 -0.322851628
3.657859564 0.372898877 1.592993617
7.740067005 -7.493508339 1.530574441
-1.335866451 2.377682209 0.076293997
-2.187676430 1.411759496 -0.122654594
-0.317608804 0.648226798 -0.427712798
4.480792046 3.752219677 -0.016994420
1.338803887 4.827089310 1.570888519
0.736451447 2.098009825 -0.700677216
-5.147322655 0.512830317 -0.272175193
-0.206453025 0.424540013 -0.329221874
1.144005537 -0.036190219 -0.948463857
3.970302343 4.137392998 0.146953046
3.126835346 0.058666293 -0.482722372
-0.986310780 1.722461700 -0.932158768
-0.111496046 0.350859076 -0.406690329
-0.829697013 0.654824555 -4.386804104
0.281111002 0.045037091 -1.048558950
-1.085975885 -0.574584365 -0.709360301
-0.142671853 2.534362793 -0.989110827
-0.051045235 0.259313613 -0.400276899
0.418554038 0.269265652 -1.525150537
0.545167327 3.139118671 -0.720776081
-0.058427650 0.099914052 -0.347142667
-1.235154033 -0.056921463 -0.886733055
-2.508070946 1.138258219 -0.665275156
2.217936039 -0.344823092 -0.093714535
8.001135826 3.592969179 1.252785563
0.644985795 -0.884549081 -1.180302739
1.645831466 -0.680524230 -1.081555605
-0.113683760 2.401993275 1.869785547
3.007192135 -1.987629294 0.901871800
-1.183422446 1.794519901 -0.207805052
-0.821354389 0.384002417 -1.944091201
-1.397825003 -0.151467174 -0.397029936
-0.177860811 3.271864653 0.001624060
0.870613813 0.317269146 -1.119971752
-1.276296258 4.090440273 1.121578693
2.236171007 2.858773708 -0.192254633
3.057899237 1.578196764 0.384956598
-0.211254656 1.827678919 0.986682594
5.370418549 4.566615582 0.929717064
6.847604275 6.245332241 1.780736685
-6.667884827 2.143942118 -11.499575615
-9.517868996 5.430298805 2.173558235
-8.631216049 20.319622040 0.074340366
-7.000767708 2.327742815 1.044801235
-1.149936557 2.154037952 -0.247109711
-0.824158549 0.206931949 -2.799245119
-0.578983605 2.670965195 -0.120046631
-0.743070483 0.135159776 -0.895619929
-0.805623412 -0.201116368 -1.075135589
-0.820947826 0.202037126 -1.017828941
0.199146241 0.634122789 -0.343618274
-0.308680236 0.130636290 -1.169537544
0.081564277 0.006383840 -0.404043198
0.913538277 3.443246365 -0.005316236
1.959117532 0.342685372 -1.031169534
-1.476756334 2.782022715 -0.445092618
2.588590384 3.504185915 -1.012506962
-0.165599898 0.307141185 -0.390642226
-0.644512177 1.039555788 -1.436488032
-1.617043018 -1.583411813 1.790845394
-0.428691149 -8.429570198 0.868764997
-1.588099957 -0.857133090 -0.949866235
0.073241331 0.002712962 -1.518150091
0.083126977 -0.049847066 -0.843005836
-5.731834412 -2.335388899 1.434706450
-3.262092113 -4.579588413 0.577447653
-0.960436046 0.689599574 -1.056438804
-4.521364212 -0.453168541 1.469177961
-6.336416245 -4.992365837 0.571428776
-0.198285863 2.822101116 -0.257523865
16.011569977 9.627856255 -1.303761125
-0.288902640 0.061623745 -0.533185601
6.265865326 2.006521463 1.272776365
2.380972147 0.461467922 -0.326866984
4.671994209 -2.336275101 1.455257773
-0.317041487 0.546523809 -0.406173408
-0.726576507 2.118954182 1.228483677
0.780804694 3.854842901 0.092000686
-1.990918756 1.682609677 -0.217250511
3.094930410 1.618173480 0.380690366
0.484318405 0.062074739 -0.644397616
0.279758006 0.083072439 -0.485843748
-0.230015188 0.470208317 -0.395327210
-0.585388601 0.031474989 -1.871415496
0.728007436 3.706971884 0.096007168
1.949911118 -0.931166351 -0.360272080
3.151070356 0.489008427 -0.426620930
3.006037951 1.787357807 1.618351102
-2.136760950 0.039525885 -0.542826474
-2.239823341 1.471738458 -0.607122183
-1.179598927 2.335144997 -0.672688127
-1.545616984 9.797994614 4.924348831
2.840717793 1.465017796 -0.401071876
-0.338143229 0.591911554 -0.408962816
2.048327684 3.430294514 1.589093924
-1.067403913 1.715624690 -0.273974717
0.311686397 0.120964840 -0.431487441
0.121456541 0.038508341 -0.392994791
-1.976435184 -0.316922188 1.911692381
-4.835529804 -0.472264320 -0.154253229
-1.216829538 1.811303377 0.149444237
-2.311208010 -0.600226700 1.484589577
-1.978623509 0.167392448 -0.482477218
0.289971232 -8.109203339 0.387925953
0.616272807 0.838383317 -2.369314432
0.844876230 -0.347989082 -0.925658226
8.877549171 4.157317638 0.311341256
-1.515190363 -0.162497267 -1.095395088
1.428545713 -5.339052200 0.313775003
-6.696911812 3.427332878 1.086350083
20.590976715 8.410994530 -98.451538086
-0.979924321 1.559139848 1.918480992
-0.767429531 1.813133597 1.919749618
-1.782060504 -0.009066289 -0.671427250
0.030269591 0.419741869 -0.320115477
-1.273230195 2.162765026 -0.618244171
-1.013991356 -1.850318551 -0.911271513
-1.221948147 1.595016241 -0.044972289
-8.896609306 3.024941683 0.950842381
-6.664964199 2.623450041 1.059883595
3.277598143 -0.095019214 -0.525394559
-0.091062784 1.059503794 -1.579904914
-7.135833263 4.355176926 1.631828308
-2.780241251 5.548272133 0.142613798
-1.925090194 1.457993269 -0.868022799
-2.236166954 1.710660458 -0.547659755
1.947949886 3.446258545 -0.394093663
-0.167198300 0.275164694 -0.408131957
-6.477657318 7.677575111 2.373503685
-0.463830739 -0.456976384 -0.977114975
0.683882058 1.106698155 -2.743142128
-1.963933945 9.020457268 1.597111464
-1.327985883 -0.834247768 -0.687223732
0.405740261 0.129662871 -0.415389746
-3.160021067 -2.225099087 0.330046326
-7.671028137 -0.985049188 -0.036719404
0.035798714 0.052806888 -0.437696368
-2.270179510 -0.325464010 -0.669256508
-1.263489604 1.502033591 -0.262792915
0.152524188 1.789721012 0.877319574
0.561029613 -0.210307479 -0.434075922
-0.088665769 2.141259432 -0.676060498
-0.359151661 0.729914904 0.528544009
1.656259775 7.584112167 1.441679478
0.507813513 0.045110248 -0.710780442
0.073758304 0.087153584 -0.501260340
-1.188828588 2.176050663 -0.197302714
-0.621203780 0.692046523 -0.515974760
-1.467216253 1.430924416 -1.433268905
-4.636820793 -0.928809643 -1.138524890
-5.797061443 1.541552663 0.168235987
0.280823767 2.592528343 1.228027463
-3.756277323 1.478371382 0.062126327
-4.600510120 3.123044014 2.541916609
3.983628750 2.486160517 -0.356797129
0.786462426 2.820531845 -0.524730980
1.036775112 0.415385604 -1.329023004
1.511732697 2.718772888 -0.638334751
4.290157795 3.919276714 1.446706414
-1.495714426 1.950369716 0.202245981
-0.124107614 0.772160053 -0.394644827
0.533491731 -0.709915817 1.943706274
-1.490016937 -0.460764885 0.826208949
0.400062084 3.132687569 0.152678087
-6.312522888 1.746152997 1.179399252
0.160516888 -1.354586124 -0.730325818
-1.466434717 -0.159653381 -0.792889357
0.048360135 0.292154908 -0.915966928
-1.351304531 1.652611732 -0.359441727
-1.752323866 1.727767110 -0.296176791
0.088391058 -0.254097402 -1.209792733
-2.264167070 2.376490116 -0.122246712
-3.079507828 2.138134241 -0.040891148
-1.453583598 1.578990340 -0.890234172
1.425422072 0.268206835 -1.047503471
-0.047399934 0.086135082 -0.351397842
0.986330271 -0.375086039 -0.407197416
-0.800499201 -0.403836906 -0.892243981
-0.125763819 0.143924490 -0.393751651
-1.037068129 -0.054464407 -0.865741014
-2.252873182 2.539503336 -0.868750572
5.497799397 1.534968019 0.137526512
-4.184065819 -0.525625885 0.341383517
-5.365499496 0.800825477 1.583696365
-8.449724197 0.053556163 1.677331448
-2.355492115 -1.121144652 -2.986261845
-1.034721375 -0.121371225 -3.092705488
3.784168243 1.567576408 -0.523902297
3.121349335 0.067994103 -0.476483136
1.558825254 -0.856211901 -0.318602800
0.746549547 2.237792015 -0.102326386
-0.044271637 0.088844277 -0.360869139
-2.483634233 1.296619892 -0.617559969
0.615943372 -1.162308097 -0.767308652
-11.532857895 11.651771545 3.030479908
-5.764420509 1.660873532 0.188458845
-0.761032462 4.957120895 1.260556459
-0.870377243 1.778111100 -0.626805961
-2.598043442 -2.682936192 -0.100300156
-2.403764725 -5.421780109 1.658801556
-2.991373777 -2.974543095 -0.039072499
0.641196728 -1.331873775 1.312350988
-1.518670082 1.671585679 -0.052056462
-2.224665642 -0.562940121 1.491155505
-0.964749336 0.029326087 -0.469688714
2.719813347 1.964412808 1.427168369
0.535867393 3.025011539 -0.695956409
-0.753673732 -0.208000511 -0.721284568
-0.096171990 0.333078504 -0.279630095
-1.220621943 1.546487451 -0.638653457
0.494864404 2.885772467 -0.674851894
-0.906203687 -0.205415174 -0.869784832
-0.262950897 0.361940950 -0.408997357
-0.264112741 0.360758841 -0.409802347
-4.658990860 5.767998695 1.914224744
1.485800147 1.834367752 -0.142085612
-0.845709920 0.038146876 -0.897136152
-1.114395499 2.028981447 -0.578706920
-0.118158400 2.289994001 -0.730072081
-2.234791040 2.993013144 -0.097259723
-0.961622179 0.082903154 -0.996849418
-0.049696524 -0.111080930 -0.409113318
-6.546403408 8.151408195 1.403895497
-0.594817340 1.274816394 1.511561036
0.708871126 2.764625311 0.958493233
2.422023296 1.474843740 -1.020304322
-0.536994576 5.109357834 0.104512170
0.917862236 0.920886040 0.640996814
-1.319782376 4.006355286 -0.725258827
-2.203874350 1.562339902 -0.855556428
0.052978091 0.876245618 -0.424753457
1.863613367 1.520834684 0.385069877
3.114984035 0.673822999 -0.890603662
3.450730801 0.704468608 -0.998396456
3.955439329 2.213850260 -0.646784604
-0.177339420 0.578963757 -0.366729826
0.139632955 -0.099518523 -0.737212777
-1.123819590 1.620966673 -1.050181389
-0.503545702 4.844286919 0.084611014
0.415810406 0.137822807 -0.397764951
-1.816142797 1.697369576 -0.926890552
-1.663035750 11.237404823 1.625102520
-0.437290579 2.435811758 -0.404968947
1.647416472 2.440324783 -0.051522367
2.866966963 1.731860995 -0.548453569
-1.098909974 1.541919231 -0.160201043
-0.093143828 0.318203092 -0.319804281
-0.051205944 -0.119027428 -0.407204926
-0.120606504 0.139674693 -0.367285848
-1.495745540 1.575233817 -1.065524936
1.425768137 2.534358025 -1.022721887
1.824637413 -0.893586874 -0.344535768
-0.725626767 1.613564849 0.493377835
0.593225420 6.934351444 1.687486887
-0.533577681 1.038135529 -1.014832020
1.235165238 1.035539865 -0.222932845
-0.454315096 -1.322571754 -0.447082579
-3.463385820 1.014795303 0.034501646
-2.804858446 6.858947754 1.337218761
-1.444661617 1.896530509 -0.026630903
-2.918312550 -3.675616026 0.700988650
-0.797208726 -0.859015286 -0.348178744
-3.063407183 4.751517296 1.472191095
-2.666029692 -4.138921738 -0.594378293
0.811778605 -0.058708087 -2.468156815
-0.611119390 1.039594412 -1.114447355
0.088951379 0.353749603 -0.287434548
-4.966413498 13.006186485 1.311548591
1.394680858 4.262084007 1.551499367
-0.057853013 2.388903856 -0.092590965
-0.112225205 0.354474425 -0.271361798
-0.259869158 0.364611953 -0.408577859
-0.106140748 0.374704003 -0.280261666
0.858718991 -0.175494179 -1.054864287
0.757930219 0.306676567 -1.309517741
0.750595510 5.856847763 -0.232867151
1.186954856 -0.020401800 -0.782721221
0.646344244 3.140213251 -0.297711909
-0.251246125 1.010876775 0.227426872
1.672294497 2.646105289 -0.740959585
2.688657999 -1.483394027 -0.461060911
1.454714417 2.568348885 -1.017652154
4.766119480 2.127307653 1.531607866
0.692739069 3.339412689 1.673354030
-0.111124851 2.256124496 -0.743149340
2.403470039 1.186299086 0.302337468
0.998559773 -0.149233654 -0.984037936
1.714210272 -0.380486995 -1.828654170
-0.655923486 0.983357430 -0.412753880
-1.957002878 1.475728273 -0.924238682
1.881023049 -0.312648445 -1.112308264
1.229087949 2.073164701 -0.513037503
0.445892662 0.108743683 0.061082892
-0.128444269 0.131836429 0.044612065
0.742443144 1.015347481 1.199185371
-1.923532486 2.587270498 1.890130758
-0.142480657 0.247751370 0.038293503
1.858116031 -3.180588961 2.212364435
1.879981756 -9.235500336 0.394763887
8.456928253 -5.389485359 1.404540777
-0.659900486 0.982924759 -0.407345533
9.126415253 -17.827632904 2.800856829
-0.439624876 1.213511467 -0.270455003
-1.293210030 0.197931215 -0.707171381
-0.401808619 1.147865653 -0.419789016
-0.382108867 0.661866009 -0.412415475
-0.741690099 0.019966362 -0.839802861
-0.348830491 -1.445815206 -0.494984835
-0.248497248 -2.264340878 -0.403385043
-0.933011353 -0.336235136 -0.404195666
48.733348846 -26.891527176 -2.012377262
5.912404537 -2.249037027 0.323579043
-0.554909408 1.005260944 -1.000231385
1.477834821 0.371072531 -1.115278006
0.993048906 0.256640047 -0.830939174
5.484124184 1.542975783 1.091798663
0.542857826 0.131560937 -0.518205702
-0.260726660 0.375934333 -0.420378596
-0.107746482 0.148121014 -0.377650380
-2.171158791 2.077858925 -0.675255299
-0.108173236 0.306345314 -0.195737883
1.198331118 -0.112848654 -0.427073836
-0.193611562 1.176583529 -0.618547916
1.847077131 -3.155380249 0.457277328
-0.694832146 0.809644997 -0.290435046
-0.379124612 0.635856211 -0.402107567
0.207333699 -1.909581661 -1.118154407
-0.702721655 -2.273272753 -0.150338888
-3.136701822 -4.248272896 0.524521232
0.369149894 -2.073629618 0.105636269
-0.331813335 0.286600292 -0.308963001
1.729104400 -0.732385635 -0.293863088
0.840862870 -1.768511772 0.142347172
4.449378490 -1.072466373 1.630242944
-0.797581017 -1.288278103 -0.122834191
-0.597079813 -0.426235676 -0.919339418
1.523514867 -0.033530854 -0.429027438
-0.177187696 0.176736146 -0.315377504
-0.592623234 1.028708100 -0.391870856
1.456226587 -0.434057295 -0.814984858
-0.565104425 0.957757831 -0.855551600
-0.579421878 0.963966906 -0.844584703
1.149230719 -0.611429811 1.092997074
-1.070265055 -0.768562317 -1.528951287
0.724550188 -1.830313683 -0.355652422
-0.585906208 -3.284024000 0.124312662
-0.245377585 0.793179810 -0.403983086
0.316626161 0.178512886 -0.881822348
2.282881975 8.710547447 -22.532451630
-5.514573574 1.373833895 0.708213329
1.214276552 4.371979713 -11.384839058
-0.116224177 0.610037148 -0.419849426
-1.408176541 -0.091013856 -0.628173649
-1.785536170 -0.276698709 0.139988884
0.554166377 -1.395034671 -0.500006557
-0.172187954 0.269568563 -0.398485571
-1.492451429 1.892466307 0.108163409
-3.352075100 -2.413748026 0.350903928
-3.009997129 1.649360299 -1.120322227
-6.169533730 -0.915224075 -0.199665099
-3.857029438 1.615506291 0.993337572
0.548601866 -1.562141776 -0.739522398
-2.635330439 -5.377953053 0.148453996
4.453568459 3.507030249 0.814877212
-0.133583337 0.580420494 -0.372516096
-0.950206816 0.845065415 -1.468201160
-0.390898675 0.669930816 -0.405822784
-0.112263367 0.145797759 -0.390003800
0.986682832 2.505748987 -0.118663840
-0.108391285 2.647099257 -1.050155997
-1.976918817 -0.610029042 -0.035609849
-0.930234551 -0.249864668 -0.391811728
-1.056763172 1.963310003 -0.353509456
-2.359726906 4.672932148 0.023055788
-7.859266281 5.354730606 1.123577952
-3.789355040 -1.919088364 -0.083910152
-0.420692235 1.045720339 -0.963072956
1.942015409 -1.382724881 -0.309810519
-0.396615624 1.076774478 -0.981991649
-1.053411603 -0.173199907 -0.363079756
-0.180369079 1.152801752 -0.518526137
-1.168155670 2.108145237 -0.321904480
-3.527268171 -2.663729906 -0.039497152
-0.080536261 0.246075436 -0.395809829
0.026428947 0.417231381 -0.276919425
-0.055065237 0.255938709 -0.278685868
0.138512865 -0.203344569 -1.109710932
0.268506140 -0.256256193 -0.688115120
-0.241490468 -0.673807323 -2.085318804
0.132296577 -0.198820695 -1.114980578
0.317653298 0.278715402 -1.246992826
0.308054239 0.264529586 -1.208627343
-0.918936193 -0.201005235 -0.902734816
0.210498273 0.121445954 -0.943194330
-1.285581231 2.897662878 -0.257188052
0.137123525 0.008765553 0.102000341
0.233268678 -0.011297814 0.085097492
-2.250376225 1.420414925 -0.817889988
-1.442010760 1.760192871 -0.036732793
-3.282181740 2.297712564 0.214818180
-1.522090673 -0.177709520 -0.667068064
-0.345411956 0.588673055 -0.406095475
-4.621985435 0.196783707 0.029476926
-0.391465545 1.812476993 0.517886460
-0.983994961 -0.202617019 -0.994095266
-0.947893083 -0.177681878 -0.981240869
4.036280632 3.098120451 1.210418820
-1.642689705 6.151956558 0.042400785
-0.235104203 3.149514198 0.076099485
-5.523445129 1.725734353 1.167178869
-1.708192348 -0.103652321 -0.523953080
-0.357451320 0.058858454 -2.702737331
-2.303978205 0.182786718 -0.634112000
-0.235258758 0.892694116 -3.255247355
-11.449214935 5.891231537 2.315197229
-6.053295612 15.941292763 1.554832578
-0.406159550 0.738657296 -0.409233510
-2.377179861 1.494743228 -0.659334421
-5.766350269 -3.715539217 1.211634040
-0.029185897 0.030641060 -0.397491604
2.870671272 2.029454231 1.433568716
-2.493037701 -0.688687384 0.180609271
-1.823606372 -1.757036686 -0.156984970
-1.164653182 -2.140768290 -0.617584229
-0.093491554 0.338046640 -0.396340013
-1.339298010 -1.794900894 0.097270325
-0.683522940 -0.708526790 -0.439263016
-1.795515060 7.801155567 0.035795782
-0.407713950 5.785562515 1.420706749
3.790251732 0.362328738 1.639801621
4.857281208 2.183206081 0.624172509
3.922766447 4.123079300 0.178131878
-2.117418528 1.327677369 -0.399580628
-1.382580042 -0.359146953 -0.835192025
-1.337641120 0.549815536 1.893236399
0.263255596 -0.073851012 -0.489293754
0.233654752 -0.533697307 -0.971213281
-0.711858988 2.825521231 -0.320212185
-1.474880815 -0.022430519 -1.021960139
0.104755260 0.025173765 -0.386181742
2.107511759 -0.651076615 -1.057115078
2.129724741 -0.393649399 -0.272011906
1.054485559 -0.429389000 -0.444428563
-1.391128540 1.492918253 -0.691164613
-2.044597387 1.547022939 -0.549485445
0.667221069 2.149512529 -0.924560189
0.162292719 1.369022965 1.763915062
0.138943568 1.190771103 1.580157518
1.811552882 3.827229261 -1.035314679
0.754575431 3.797317266 0.094969392
-1.470828772 -0.076845400 -1.025578856
-1.265541434 -0.062710382 -0.929638863
-0.268975198 3.722446442 0.121320352
-0.121165290 0.142392427 -0.377017617
-0.123291999 0.464922011 -0.342801958
-1.240931273 -0.284207046 -1.137185693
14.393145561 -13.510066986 0.027275883
0.389612526 -1.901888132 -0.358071387
2.437347412 -0.428080976 -0.213510737
75.644081116 34.700096130 -9.839026451
0.849810541 3.473235846 0.077973276
-0.095027976 0.839441955 -3.101977348
-0.072174162 -0.126267254 -0.864643037
-0.772770882 -3.244043350 0.135888860
0.192399606 -1.814321399 -1.056148648
-0.664283097 0.985609770 -0.405751616
-0.743179500 1.700419545 1.915968418
-4.214095116 7.726716518 2.333192110
-1.527089953 1.606011033 -0.279042512
-0.943002164 -2.034772873 -1.082529902
-0.426362574 0.742806673 -0.402315944
0.231264368 -1.777131915 -0.344267279
-1.046099544 -2.207514286 0.051254362
-3.981077671 4.182474136 2.033774137
-2.870524883 1.068631530 -0.001517461
0.175439417 8.249299049 0.998660445
0.186577350 3.601954699 -0.327099621
0.134515479 3.220412016 -0.285824329
-2.569481611 1.305053592 -0.634612858
0.055116486 0.032590345 -0.419382542
-0.282027096 0.809152782 -0.405638635
-0.062537044 0.237961799 -0.402093440
-0.060343366 0.237677947 -0.403353274
-0.072992615 0.070622325 -0.375527591
-7.664579868 6.398223877 1.433852315
-1.016475797 -0.281553060 -0.431902021
0.246584564 1.182980537 1.574086785
0.725358903 -1.159221888 -0.682124257
-0.139367983 0.422935367 -0.296455294
0.029087938 0.417845815 -0.270989865
-0.799569368 0.840141177 1.900418520
0.251797110 -0.035879306 0.236706227
-0.912061989 -0.867058933 -0.834441721
-0.478667885 -0.089933269 0.103265479
-1.952978134 0.600893021 0.036521964
0.143360958 -0.252360791 -0.136871472
-0.801494777 -0.770509541 -0.700589597
-0.771776259 0.032293253 0.194589868
1.363151073 0.014733460 -1.067282319
-0.494806558 2.589439631 -0.411543250
3.284086466 3.545094490 1.365511537
6.665196896 1.955431461 -2.140960455
5.890477180 4.560614109 -0.538884580
0.165969193 0.021327432 0.097039558
0.141501769 -0.027563268 -0.534414709
0.217904523 0.057038210 0.087077200
-0.393345594 0.949759483 -0.537270308
0.315363705 0.744929314 -1.164083004
-1.453556657 9.659517288 1.532841086
0.354328215 -0.467502803 -0.265144616
0.408939004 -0.099261954 -0.089381039
0.345980853 -0.542052150 -0.292487234
-1.547838688 4.053075314 2.315718412
0.230954662 -0.109798364 -0.561216652
0.345605224 -0.559980154 -0.298843116
2.033892870 -1.179370403 -3.626310110
-2.425310850 0.189765707 -1.017151117
-1.695361018 0.248175338 -0.405920595
-3.375389099 0.568086028 -0.413918436
-1.657573581 -1.244191527 -0.698062241
-2.296244144 1.809062004 -1.119741201
-0.978408158 -0.417392045 -0.403279960
-1.626077652 1.902095318 0.147296771
-0.325809151 -0.138884857 -0.146357805
-0.479961038 0.474192888 0.239973232
0.193083182 -0.136971727 -0.975281119
0.129767627 0.289799333 -0.749075890
0.068653733 -0.001020205 -1.527319074
0.078954995 -0.056940593 -0.850993454
-0.159200236 -0.091434292 -0.454099685
0.548432052 -0.269608706 -0.423755646
0.255006641 -0.572427928 -1.001526356
0.585473239 -0.283005953 -0.521072507
0.296600729 -0.070768885 0.074648589
-0.341297626 2.252994537 -0.952651441
-0.053234976 3.081388235 -0.113428503
-0.033041295 1.808720946 0.929337800
-1.891591787 7.739642620 1.068547010
-5.743280888 18.946092606 1.357091904
-0.628883839 2.827255487 -0.337742686
-0.032792989 0.074616991 -0.396608561
-0.018132241 -0.095101885 -0.384900063
-2.188676834 0.105634838 -0.048115321
0.303020924 0.655866802 -0.452312291
7.504387379 5.367951393 1.326876521
0.994256079 1.163782716 1.368517399
-0.341369927 0.619672298 -0.436577022
0.063408107 0.356594443 -0.263863057
-0.234412327 0.484839141 -0.404749751
-1.637301803 0.189634755 -0.056765538
0.913834453 0.410832435 0.565773726
-0.578048706 -0.089689061 -0.759266853
-0.399625957 1.064637661 -0.342203170
-0.432971448 0.998933852 -0.341271132
-0.513611019 1.196887493 -0.829404831
0.015973680 0.037107062 -0.367931575
-0.119135506 2.376945734 1.827171922
-0.235901386 3.134255648 0.641681731
-0.649364531 0.824885428 -1.539045334
-0.573619962 0.916175127 -0.833678424
-2.401538134 -3.713646173 -0.065049879
-1.746939182 2.563400984 0.213729277
-6.133910179 9.988022804 1.205881834
-2.540706635 -5.656934738 0.994030356
-0.224279463 0.019376624 -2.741551161
-2.419769526 0.127222806 -0.074820057
0.074474610 0.337932169 -0.295235544
0.125808716 0.039325301 -0.360700160
-0.338444054 1.182178020 -0.364380687
-0.997895658 -0.931356311 -0.375843197
-1.651931882 0.192226127 -0.582622230
-2.346694469 0.155510798 -0.070179671
-1.033491015 2.018866539 -0.052612964
0.002820530 0.434924275 -0.402829230
-1.124230027 2.378406525 -0.595209122
0.214756504 0.882838726 0.218879923
-1.087543368 2.013319492 -0.152247712
-1.634102941 -0.906735182 2.565486670
-1.128628612 0.263265699 2.046394110
0.001737738 0.429286212 -0.395226210
0.116781838 -1.840686202 -0.373188734
-0.975579321 -0.450167805 -0.418774813
-2.617011786 1.465385556 0.108109288
-1.569897413 1.541421413 -0.128345296
-2.580992937 1.314158082 -0.569118202
-5.076147556 -0.547170460 -0.084471680
-0.438849688 0.580341637 -0.467615396
-0.301359802 0.543199003 -0.398909152
-1.013852239 1.652998090 0.004273167
-2.731221914 5.332659245 1.088279486
-2.352581263 1.864970684 -0.321635336
-0.235710934 -0.650205493 -1.007837057
0.011535806 0.436474353 -0.264756858
1.377507210 0.116427742 -0.955937743
1.430615425 0.132353052 -0.985915840
5.031253815 -2.460139990 1.576335549
-0.991824806 1.586132765 1.960403562
-2.846496582 8.754528999 1.621351361
-0.022614453 0.041392520 -0.386088073
-0.556488931 -0.291283607 0.063959673
-7.254064560 8.839102745 1.522704482
-2.652714252 0.900549531 0.003556022
-0.017608015 -0.054527532 -1.067250967
0.161792517 -0.007597573 -0.503898025
0.072298609 0.343696892 -0.399660379
0.350392252 -0.201533526 -0.486900806
-3.667320728 2.095451355 0.188661724
-0.050753403 -0.060644351 0.114757553
0.819016874 0.207649678 -1.060613394
-0.051952835 -0.055838469 0.117239684
-0.023340572 0.058007326 -0.395280868
0.058807202 -0.126268715 -0.438948810
-1.587379575 0.091234855 0.287951738
0.870144188 -0.241008177 -0.694914460
2.609999895 1.618198395 -1.132094622
-0.420376003 1.389648438 -1.015812159
-0.278743237 0.378496826 -0.392415673
-0.274109542 0.653018475 -0.402084857
1.905007958 -0.863167465 -0.323521435
-2.877793550 -5.749381065 -0.372468919
-2.714523792 0.622522354 -0.754981875
1.076378345 0.046584841 -0.571271837
1.675142407 -0.218272209 -1.050096512
0.073410764 0.082390375 0.635806978
5.024610043 -0.075958133 -0.345609874
2.764354467 -0.247705072 -0.254820496
-0.424713761 0.741321504 -0.404963732
-0.142952651 0.650227070 -0.390638739
-0.212813720 0.829725266 -0.411059797
2.935371399 1.763419390 1.581108212
2.380710363 -0.204491705 0.987433732
6.820899963 3.051455498 2.207261324
-0.499455065 1.296619892 -0.951076150
0.618914127 1.023213625 -2.326834440
0.539002120 2.552523375 0.840523899
-0.108597502 0.063389547 -0.721192658
-5.489127636 10.887444496 1.796724558
-37.644134521 5.580870628 1.065548182
0.013451899 0.240720347 -0.243248001
0.021601111 0.418362677 -0.288179755
0.991026580 5.411012650 1.560514927
0.121760376 3.179990053 -0.260281444
1.446803689 3.698680878 0.083914459
1.408199787 1.819341183 -1.471189499
-1.138145685 1.644325972 -0.179488346
-0.982879996 -0.912066460 -0.370029241
-2.093582392 0.130186021 -0.054269638
-0.136772946 0.205498606 -0.911824763
0.005088393 0.434830487 -0.404582858
-1.176126599 -0.037221074 -0.389962405
0.573951781 2.193470955 -0.730357289
-5.688878536 0.810984492 0.858646989
-0.296784550 2.790958166 -0.407234967
-0.155339599 2.041165590 1.026355743
0.786598623 3.829001665 0.086268857
-3.989386797 -1.406847954 -0.051858272
-0.454169393 7.308423996 1.219160080
-2.206982851 0.148715720 -0.112656295
25.643823624 11.215316772 0.406040758
-0.120579347 0.780360341 -0.405581295
4.070160389 4.222019672 0.803025305
1.543477654 -0.646817148 -1.034414649
3.635347605 -2.336503267 1.095173597
9.682783127 3.637956381 0.336030751
4.288542271 3.890553951 0.869813085
9.189505577 3.939541817 1.434039116
9.699664116 4.034479141 1.517336369
0.891940594 -0.383203179 -0.381930113
-7.855525970 0.117579840 1.602268696
-4.848405361 -5.529960155 1.386482596
-3.260802507 1.353135824 1.433881640
0.332669705 -9.007617950 0.831775904
-1.788595319 -0.194560573 1.726610422
-7.998190880 5.075981617 1.709418058
-9.153933525 -8.061717033 1.642294288
-1.602585435 -0.267392665 -1.121866107
0.911515057 3.023198605 -6.860767365
0.142346695 -0.184855506 0.637290120
-3.796554565 0.475154936 -1.050863266
-5.195261478 1.826419830 1.367268443
-0.488845497 1.080379844 -0.415869236
2.462493896 -13.371779442 3.636659384
0.894528687 -0.391854644 -0.395887017
2.910417080 -0.782447696 -0.039681919
5.204762936 -3.446220875 1.465573549
-0.706503868 1.070396662 -1.919646740
-0.110080577 0.123719081 -0.406541467
-0.154899180 0.275006086 -0.432160974
0.966929078 -0.389726639 -0.404578567
-0.580294728 0.958460212 -1.057544947
6.496054649 2.121913671 0.177687332
-0.197860986 2.684344530 -0.247342482
-0.038235579 0.274561435 -0.399899632
0.407216221 3.394196510 -0.113551483
-0.529011726 2.884685516 -0.103532188
0.304325640 1.406372786 1.810327888
2.072510958 0.171303183 -1.624818206
4.188291073 3.728086710 0.783072650
1.094076633 -0.278182268 -0.985231102
-0.111751080 0.154792264 -0.393407434
0.705860853 -0.067172766 -2.157357693
1.220160484 -0.016846644 -0.798785627
0.848744154 0.161416858 -0.708156109
-1.074003577 1.522458076 -0.995766699
3.024883986 1.381770492 1.498625159
4.036521435 1.904833794 -1.180654287
3.905449152 0.373598635 1.711536646
-2.255205393 1.102930546 -4.208029747
2.295080185 0.676479518 -0.876269579
-1.219489574 1.544365168 -0.634969652
2.378378153 1.175903559 0.305124313
-0.113670945 0.771891117 -0.396050662
0.344424188 0.187655032 -0.493926227
0.160079181 0.137499005 -0.844653904
-0.120903663 0.360172570 -0.312682629
4.070275784 -1.003429055 1.517585874
0.272414982 0.863448799 -2.761115789
1.610672593 -1.129889846 1.652404308
-1.178439975 -6.132856369 1.369348407
0.882380068 -0.371755868 -0.389579773
5.287663937 2.088229179 1.104789972
0.402790338 0.129540071 -0.414736867
-0.559891701 -0.064129971 -1.758459091
0.915637612 -0.749630213 -0.283404231
0.145568937 -1.531386495 -0.804480195
-1.520265102 1.585460067 -0.871485829
-2.075434446 1.333211660 -0.239126235
22.732263565 -11.966131210 -82.422248840
-2.332877159 -3.685868740 1.283719063
-1.174021721 0.378656954 -1.107784748
-1.331983328 0.021650476 -0.335008770
3.280598164 -3.147549152 0.308974445
2.476618290 0.076683946 -0.668484151
0.130510524 -1.692847729 -0.599125803
-0.649833918 -3.667556047 0.346462220
-0.313610494 0.385923743 -1.101572752
0.015363294 0.607566178 -1.080907702
-4.432952404 5.066890717 1.170996070
-0.275259644 0.643012881 -0.410618573
-0.174748987 0.746127665 -0.405344635
-1.192122340 -5.645068169 1.537895560
-3.936244965 -0.531109035 -0.194468677
0.247050479 0.445447862 -0.320046574
0.252033710 0.448284179 -0.315642834
0.651452601 0.770129919 -0.352531224
-0.466656804 1.149166226 -1.596988320
-2.305980444 7.476014137 -3.748831272
-0.146667823 0.744560122 -0.433440387
-4.091818810 2.739114761 -3.519455671
0.645843267 0.749984920 -0.355347097
-9.649073601 -6.503262997 1.608989000
-3.562631607 -2.438841343 -0.023371587
-1.411811471 -1.451160908 -0.042685412
0.145236999 0.082028598 -0.919640839
0.015935956 -1.208408952 -3.075092793
-3.296745539 1.382753730 1.481356382
-1.160425663 -3.214410782 0.057714965
-0.438843966 -3.339585781 0.046532512
-5.440059185 2.053370237 0.823900104
-0.984502017 -1.216961622 -0.385148108
0.132075965 0.043842211 -0.966578066
-0.935242116 -1.968024373 -1.073155046
0.149186045 0.029254870 -0.992863178
-0.009712790 -0.145830080 -2.199810266
-0.638590872 0.985877454 -0.395587564
0.246596947 -0.774595857 1.899187684
-4.370990276 -0.263485223 -0.208314091
-0.048570078 0.773354769 -1.414176345
-0.297818005 0.608631551 -2.745788574
0.056854974 0.718548715 -1.492870331
0.105312698 -0.048595477 0.727205455
-0.881770492 -0.698394299 -0.389091432
-0.115087971 0.771582425 -0.391301066
2.125756741 3.428853512 1.597371817
36.234561920 -76.952957153 -12.685390472
0.206796303 1.035690308 -4.622531891
1.134565711 -0.255531549 -0.416857600
1.002367139 -0.121213257 -0.368324012
2.903239965 -0.030322200 -0.900706291
2.727681160 2.552631617 -1.062362790
0.696612179 2.645704031 -0.545657218
-0.111320049 2.709596634 -1.037701845
-0.177201897 0.514505506 -0.406763494
0.325206697 -2.137774944 1.616357088
0.899062693 -0.162422508 -0.366325259
-0.353697360 1.107542038 0.141702563
-1.138754845 -1.455156565 -0.530823410
-0.412533313 0.847331822 -2.443609476
-0.090020314 2.695007324 1.325561881
3.741562843 2.393663883 0.014877820
-0.185840830 0.104190975 -0.451098591
-0.194316044 1.467359900 0.218995869
-0.299874455 0.635167301 -0.684641361
-0.315273166 0.627563894 -0.682088256
-0.252818197 0.953172147 -2.041065931
3.463272810 5.641375542 -0.215297997
-0.304865092 0.802000344 -0.418571174
-0.216387272 0.576402783 -0.403612882
-0.073204726 -0.065255843 -0.851377249
4.569542885 3.568586111 1.675441265
1.175641418 -0.111901775 -0.411624044
-1.619231105 0.210762650 -0.340011626
-2.902086020 1.362033129 -1.178299069
2.512522697 1.026054025 -0.998369634
-0.000023884 -0.043809306 -0.880444825
2.207008600 -1.371629119 -0.497203946
0.056942374 -0.018946175 -0.415815890
-0.372916669 0.635549068 -0.408076704
3.437582493 0.658139110 1.577291846
-0.116165794 0.785861552 -0.403127104
1.499517441 3.632573843 -0.071600243
-0.254934460 0.470913917 -0.402395487
16.077672958 7.998133659 -1.497321129
0.051213328 0.791583598 -1.180649757
3.050332785 0.057396911 -0.480117828
1.866826177 -1.125253677 -0.364623755
1.706471682 -1.391547680 -0.400333017
1.702834129 -1.632574439 -0.728519142
3.884416342 1.808174729 -0.496475160
-0.175644249 1.487813830 0.232046142
0.751599371 -1.109579444 -1.042693019
-0.498451054 1.292029619 -0.944605291
-0.304560691 0.979747593 -1.842698097
-0.076096520 0.332571149 -0.397866040
-0.134291023 0.165354669 -0.340534329
0.401372492 0.147501305 -0.406433016
0.104822263 0.735900223 -0.403843790
-9.969869614 -2.850889444 -7.549826145
-3.833610058 0.792782247 -1.510519981
-1.811485410 -0.329544276 -0.058113087
-2.211141109 0.588284075 -1.470754027
-4.386175632 -4.425104141 1.298584819
-5.031457901 -5.677336693 1.279806018
-1.866197467 -0.362350076 -0.062867902
-0.123179570 0.158335283 -0.323676795
-2.308935642 1.430916190 -0.961537242
-0.782627881 -0.650987267 -0.416234165
-0.744804680 -0.634225547 -0.394616961
-0.406906039 0.731250465 -0.406612068
-0.052599628 0.111200698 -0.347755224
-0.019066596 0.428405225 -0.238890842
0.939454436 -0.228330120 -0.450552702
2.662765265 0.934391499 1.807436705
-0.353935122 0.775769830 -0.405431449
-0.811694860 -0.381695241 -0.798906982
2.219661474 -0.361476839 1.690113425
-0.697824955 -0.694908261 -0.442426622
-3.472069740 -2.101531744 -4.270117283
0.266732961 2.353795767 -1.019739389
-0.002525576 -0.031033451 -0.945393026
0.493727744 0.975803673 0.887495160
0.456761181 -0.634056568 1.875323176
8.400736809 -7.753268242 1.277191162
2.351749659 0.916125834 -0.503186584
-0.140289158 2.582259178 -0.536816418
-1.255655289 -4.097562790 0.064980552
-0.193927094 0.805072904 -0.404184222
3.152612448 -0.246913001 -2.129928350
1.115220547 -0.126409709 -0.382664353
0.842081964 -0.345935881 -0.381247401
1.508038044 0.239180475 -1.159212828
2.615897894 -0.525832593 -0.054804768
-0.828807712 -0.282255888 -0.759445608
-0.305325031 -1.348868847 -0.883440971
3.922928095 -0.073733144 1.726866841
2.752943754 1.648823619 -0.498541355
-0.662507117 0.780433893 0.197412759
-0.784917355 0.827920794 -0.525040805
0.298195153 -0.286483407 -1.267619014
5.894029617 2.079671383 1.563144088
5.701988220 -2.378057480 1.886000156
-1.930725932 -6.185286999 0.171209782
-1.063113928 -2.264168501 -0.759149373
1.188755155 0.519951701 -1.032504678
0.301732033 -0.798783243 1.925190687
2.225199461 0.114497848 -0.987691462
-1.236898899 -2.834520817 -0.158709466
-0.680769920 -0.453625470 -0.373151064
0.892336905 2.459456205 -0.230457246
-1.736547232 0.267609298 -0.073224336
-1.996684909 1.564035416 -0.289511114
0.520093322 0.936544776 -4.038439751
5.645443439 2.093672037 -0.766542792
-0.859379649 0.789131820 -0.277173936
1.568103671 -0.066566296 -0.401386857
1.183227420 -1.373875856 1.503524542
-0.356040090 0.600309670 -0.407403529
2.685312510 -0.106935292 1.687731028
1.661367774 -0.985038698 -0.284700543
-1.471953273 -1.846962333 1.890234232
-0.593326569 0.611876845 -0.476396620
-0.104355104 0.356974423 -0.394467890
9.590627670 -8.074866295 1.742436886
7.694665432 -3.826247454 1.129603624
1.623977065 -0.298882991 -0.911839306
-1.760898352 1.648896217 -0.526776135
2.692790985 -0.098402396 1.025578141
1.644390464 0.130010262 0.759873867
3.188806295 0.366773367 -0.497828990
0.732667625 1.133252859 0.629931509
-0.662404239 0.985815227 -0.406683475
-0.324647427 0.534689307 -0.396151185
0.662126482 2.979024887 -0.318990290
-0.147734836 1.159112096 -0.412540108
0.700036824 1.509164095 -1.536192775
2.078806400 1.034102201 -3.895431280
1.067173004 -2.495022058 -0.088591374
-1.235698700 -2.182810068 -1.073944926
-0.296315670 0.427884102 0.882404506
-0.587942660 -0.558372140 1.766527414
-1.219058752 -0.117637172 -0.415307283
-0.152530000 1.329466105 -0.132780105
-3.729657173 -1.400462031 1.676609159
1.336695910 -0.091998890 -0.238972202
1.097836137 -0.614851832 -0.272942483
1.757228851 -1.090595007 -0.322253525
-1.020199299 -0.218319505 -0.790872216
0.413588464 0.539587379 -1.017350912
-2.391768932 -4.681315422 0.132584646
-2.286394596 -0.093363836 -0.262202263
-0.417949945 1.154486060 -0.407455742
16.120115280 5.908973217 -0.431791276
6.908031940 -1.236593485 0.269518286
0.137174562 -0.090558097 0.695392013
0.126303360 -0.632051885 1.676735401
1.014988899 -0.094578847 -0.362850964
-0.516744912 -0.870392859 -0.868655443
0.526182830 0.133122459 -0.500786185
-0.083049558 0.447264522 -0.331195444
3.323512793 -3.456619501 0.078740224
-0.640347064 6.547181129 0.119210064
-0.489930600 -1.204360008 -1.038866401
-2.112664938 -0.787039101 -0.052925967
-0.449916482 -0.525374711 -1.035167336
3.198523045 0.879812002 -1.003506184
0.470069408 -4.530141830 0.160718277
1.356654286 -3.091426611 2.110002279
-37.897033691 -36.353416443 -1.923969984
0.093577206 -3.210572243 1.702131033
-0.112298667 0.351180226 -0.399558067
2.600912333 -4.970206261 1.896449804
0.004655990 -0.030313298 -0.963078678
0.055049937 5.118974209 2.423949480
-0.635285020 -2.267876387 -0.300683796
-0.461849064 -1.214872122 -0.990414917
0.109148912 -1.592556953 -0.670453608
1.610820889 -0.393290311 -0.270374566
0.588608801 -0.737144887 -0.456057072
-0.198232517 1.233665943 -0.404085726
0.618702888 -1.742699146 -0.693470955
-0.592108309 0.972119570 -0.553324580
-0.281493694 0.808068573 -0.405919313
-0.376774907 0.634813070 -0.405227333
0.017049681 -1.411322355 -0.758724451
-0.148428753 -1.888812423 1.759109974
-1.587454677 -1.495452881 -0.163831517
0.723479092 0.743356705 -0.780051053
-3.280764103 -8.724424362 1.460014582
8.197627068 -7.682321548 1.286843896
-2.423666477 -5.439349174 1.214544058
3.853034735 -0.728525996 -0.079957485
-1.995075822 -0.408170700 1.959443212
-1.398432255 -0.063550003 -0.623013377
-2.025255919 -0.946874917 0.300791353
-2.805354118 -3.982419491 1.354625702
-0.143239066 0.695371687 -0.408881187
-1.275744200 -0.313422650 -0.652580619
-0.207099408 0.837775707 -0.408874243
-0.409422338 0.705809832 -0.403445959
1.545208812 0.135909989 -0.265789390
-2.329866886 -4.618206024 0.740689933
-0.472806513 0.980522513 -0.803517103
-0.769330204 -2.229557991 -0.573467076
1.348124385 0.323583245 -1.021694899
-0.091516443 0.246831134 -0.401171565
1.109043241 0.089129910 -0.802438736
0.562868237 -1.905558348 -1.014823079
2.387851715 0.726329327 -0.805157185
-0.562522888 0.953988612 -0.886990666
-0.309541553 -1.445437789 -0.727054954
-0.150812939 1.168560505 -0.408179462
-49.508968353 -20.568292618 -38.752113342
-1.340694308 -0.098311722 -0.694161654
-3.190519810 -3.507512808 0.309509695
1.024600029 -1.305631518 -0.425662100
2.053953648 1.834253669 -3.518146992
1.141450047 1.191872835 -0.774340630
-0.678707123 0.244050428 -1.776910782
1.246495366 0.543223381 -1.092344761
2.554367304 -0.153442681 -0.889514983
-2.560353279 1.639935613 -0.612936139
1.142601728 1.260035276 -0.972723663
-2.471344233 1.048917413 -0.671270370
0.959557116 1.688072085 -0.176828280
-0.125861973 0.144443721 -0.396600962
-1.825670362 0.297667235 -0.472832769
-0.137019172 0.348465890 0.042418864
-0.972329557 1.429208159 -0.004170837
-3.335129023 2.309947968 -0.065585606
