ply
format ascii 1.0
element vertex 1272
property float x
property float y
property float z
end_header
-2.544575691 1.096341610 -0.307948560
0.509180009 0.229211330 0.356088191
-1.649910808 1.297690392 -0.210379452
-0.183327645 0.167705983 0.229967311
-1.222422004 9.529984474 1.587945223
0.101426676 -0.059129372 -0.290815324
2.126005888 1.513873935 1.369733095
0.136215255 0.122761987 -0.239317119
2.570896864 -0.701228738 -0.258233011
2.441379309 0.505579710 0.697708607
2.259939909 1.107786059 -0.864144683
0.865436018 0.970724881 0.859765410
-0.308070272 4.561670303 0.130077437
-0.990146577 -0.044219457 -0.878477454
7.493216038 5.236878872 -0.598818839
0.548424363 -0.144010082 -1.272395611
0.395958364 -0.083146296 -1.019406915
0.580699921 -0.387176692 -0.194088340
2.309234142 -0.544542074 -0.228121608
0.568422019 2.545530319 -0.231047928
2.739856958 -0.004141647 -0.892683506
1.065163851 -0.235583633 -0.319164187
0.040418044 0.072549060 -1.589393973
2.632874727 -0.422106028 -0.184227496
1.426264644 3.084300280 0.105805777
4.757234573 1.334308624 0.996240318
-0.063761473 0.337380648 -0.346007049
-0.499654323 -0.913746595 -2.056584597
1.059602022 -0.297836155 -0.329259187
-0.408270627 0.696209013 -0.427586943
-0.051929001 0.644508243 -3.222011089
-0.065593220 0.430806518 -0.344228536
1.086973071 -0.306541204 -0.320193410
3.334729671 -0.158509523 -0.424967855
0.961676657 -0.503315270 -0.310070097
1.251963258 -0.599728763 -0.409074903
0.950808227 -0.472721666 -0.300604016
3.014128923 -0.370444089 -0.206671625
19.680000305 -5.672287464 -57.944774628
-2.332676649 1.522992134 -0.548021257
-1.416451454 0.126611158 0.113944814
-0.821125150 -0.299585968 -0.946397305
4.817579269 1.864362359 1.532554984
2.567366838 -0.263451338 1.574437499
3.876052380 3.214862823 -0.734490633
1.247881651 -0.301441848 -0.988789678
3.046713114 1.129821539 1.467184901
0.343110293 4.666283607 2.379075766
2.340202808 -0.527655423 1.692457676
1.305413961 1.948154688 1.400858283
1.999024630 -0.733535945 -0.881901324
1.991978526 -0.020808972 0.064613424
0.137407675 -0.079561546 -0.330042541
0.511942327 0.616566002 0.416387379
-0.180826008 0.237392634 -0.445630729
-0.020734530 -0.260005951 -0.105480701
0.543490350 3.266054630 0.974400997
2.318844557 0.670012951 -1.559917927
-1.399673104 0.095058091 -0.286905259
0.164003193 -0.167492494 -0.781834126
8.480134964 3.564899206 0.963324606
7.122712135 2.336342573 1.462853551
0.054508019 0.014412738 -0.323836833
1.284742594 -0.170731992 -0.866400480
2.716706276 0.041694172 -1.113177896
0.695916176 2.777524710 -0.604564726
-0.606704950 0.388823181 -3.697360992
-2.007963419 1.242482543 -0.844807804
0.551451683 -0.010971302 -0.325404763
1.394406796 -0.328315556 0.232219294
1.344486356 -1.145086884 -0.467327625
3.535781622 1.838561058 -1.064573526
-1.435878992 1.609346747 -0.546696007
1.160719752 -0.541769683 0.357775956
1.306484938 -0.564217627 -1.120354533
2.035807848 2.085776567 -0.891133130
0.087371878 0.491888881 -0.392198592
0.133363202 -0.062644839 -0.290685058
-1.505150795 0.146192372 -2.687543869
2.445661068 -0.937733591 -0.237818077
1.551173687 -1.046024919 -0.185504287
-1.963120580 2.094944000 -4.866302967
2.238272667 0.765242815 -0.933027029
2.287875414 -2.493489504 0.118894003
3.528710365 0.450802773 1.595780253
11.258794785 4.760826111 0.287832260
0.398342788 0.121237651 -0.077963062
1.860268831 2.667600155 -0.695245981
4.159743309 3.322309494 1.249369025
0.551149011 9.527269363 1.287836790
0.203497618 -0.038550772 -0.349946767
0.456163049 -0.027412290 -0.467520297
-0.619978428 -0.141869873 -0.255721211
-0.813825846 -0.040223859 -1.528025150
1.015611887 2.336569786 -0.406507343
-0.596623003 -0.694599867 -2.653614521
-0.598905683 0.670801640 0.747570753
-0.852118790 3.505529404 -0.083516076
0.232159376 2.663176537 -0.126691461
-0.222001851 0.224224195 -1.220504284
0.420493007 -0.367489755 -0.190301821
0.066881031 0.947205722 -0.186974674
-1.220855832 -0.499095976 -0.088436678
-8.744823456 13.802791595 8.360370636
-0.504330873 -0.274814248 0.075359792
-2.318494081 1.275103211 -0.013124254
0.082330823 1.928668499 -0.679674268
-4.002173901 4.515285492 1.168918252
-1.425321698 5.026796818 0.263780653
0.725606620 1.783403516 0.897231162
-0.975165606 -0.270434022 -1.131114841
0.528472900 -0.009750841 -0.321186781
1.007011175 2.094379902 -0.916351497
0.050736818 0.003903760 -0.308155417
0.006732532 0.176054627 -0.335228086
-0.568987846 -0.312308252 -0.927809298
0.051476430 2.295608997 -0.453084528
0.083104283 0.106194600 -0.333060861
-1.024022579 1.589004040 -0.130454808
2.623450518 1.625352621 0.131087646
1.053626060 3.224221945 0.117283262
0.983108819 1.985377908 -0.141678378
0.972364426 2.027843714 -0.149029106
-1.790458798 1.393908501 -0.894065619
-0.397435755 2.384164333 -0.720026255
-0.455147654 0.820428729 -0.347645372
-0.847525597 1.851852298 -0.294446290
0.777110994 2.005462646 -0.792756438
0.048359003 0.006966494 -0.303073466
-0.600031793 0.064576752 -0.910922647
0.337921500 2.941932678 -0.223027334
-0.591078162 -0.308860004 -0.940940499
1.031558752 2.211082458 -0.185648263
-0.456506312 0.821240008 -0.345279843
-0.702410638 -0.323044479 -0.813956499
0.266602486 6.096979618 0.338507354
0.231809750 0.185398653 -0.321577102
-1.940695405 1.762902379 1.683736920
-2.317866087 0.459053099 1.734929085
0.229886085 0.188476950 -0.322019875
-1.718609691 1.625109911 -0.233486354
-0.332754135 2.379645824 -0.235579938
2.335740328 3.772405863 -0.297485560
-1.499604464 1.511868477 -0.448209554
-1.683698416 1.464235306 -0.099492028
0.016787227 2.562243223 -0.192120805
-0.790950835 1.796848655 -0.281448752
-2.511948824 1.447120905 -0.190779611
-0.448763758 2.561248779 -0.288243115
-2.348292589 1.223540664 -0.923615634
0.193986908 -0.064210951 -0.321638197
-1.532433391 1.533697009 -0.929686427
-3.157966852 1.319694877 1.557644248
1.332098126 4.458132267 1.984820724
-2.318386078 0.980566323 -0.261528522
-2.383923292 0.982520401 -0.273047954
0.238013625 0.192118600 -0.328995705
0.066263922 2.315837145 -0.905421555
-3.136146545 1.291555405 1.543348193
1.558287382 3.271491289 -0.115020677
-2.740834475 0.741494656 1.956909418
-4.622879505 1.968994498 0.191876307
0.999653161 2.070686102 -0.904830515
0.199154675 -0.082652688 -0.313099474
-0.935005128 1.500593901 -0.132350564
1.531853557 2.245985508 -0.925674677
-1.571236968 1.566913128 -0.476945996
0.117348358 -0.049735889 -0.285372496
0.002998241 2.293195486 -0.484513551
0.776972115 2.701614618 -0.216886461
0.025095869 2.347286224 -0.473580658
0.047193844 0.006693698 -0.319905102
1.994183421 3.060293436 -0.023129990
-0.050443575 2.442790031 0.094491400
1.530841827 2.242725372 -0.911680460
4.558360100 0.946012139 0.575947583
1.151323318 1.041448951 -0.872783542
-0.030930115 0.660769582 -0.337090999
1.863745928 3.074398041 -0.210857406
-1.950714946 1.220785618 -0.354302049
-2.039301157 1.294463873 -0.750509262
-0.288222253 2.382968903 -0.344526708
-0.052551806 1.011288047 -0.537796497
-9.662028313 9.574853897 1.440081835
-2.018719673 1.288046241 -0.747450173
-2.863488913 1.424907565 -0.311405867
-0.663713455 3.002151728 -0.916464567
0.194338202 -0.062888101 -0.325627416
-0.450854421 0.848263919 -0.330176711
-1.118566394 -0.188932866 -0.827724218
0.231533334 0.199835822 -0.212945879
-0.857193649 0.630479634 -1.544222832
-2.015137672 1.581501126 -1.509551764
-0.180278867 0.567137897 -0.371129781
-0.446324646 0.824903667 -0.338459998
0.118407607 0.742755473 -0.465201735
-0.827728510 3.218612194 -0.439501643
-1.363405108 0.123716556 -0.283919573
-1.303684473 0.133380815 -0.741895199
-0.437965602 0.928924799 -0.721405387
0.095358521 -0.058008473 -0.295045018
-1.938207984 1.369003892 -0.907629192
1.564384699 3.342910767 -0.137154385
-4.196129799 3.712834835 1.463797212
0.127766028 -0.099390887 -0.317536026
-1.099159956 1.467687130 -0.241554394
0.060625233 0.604442656 -0.325212955
-9.685340881 9.295612335 1.435350299
-5.569294453 6.287975311 1.570126176
-0.195028186 1.426230550 0.935516238
-0.443993360 4.458347797 0.032502137
-2.403520346 1.217917323 -0.517180324
-3.896883965 4.219886780 2.157513857
1.655076027 4.142947197 1.539942622
-2.353489876 1.182711363 -0.499122649
-1.249404311 -0.234774023 -0.691658676
0.040499251 0.011720270 -0.318503797
-1.106894255 2.161175489 1.677102685
-1.051738620 -0.472279936 -0.320803165
0.115371644 2.688538313 0.161615953
-1.692122102 1.464727879 -0.152306318
-0.836415052 1.473894000 1.871544242
-2.452894926 0.728296459 -0.974383175
-1.249555111 -0.254656374 -0.358709186
1.284990549 3.368573666 -1.085613251
2.250767946 2.758883476 -0.906422913
-0.118702203 2.666472912 1.684863567
-0.771871746 -0.375503808 -0.357726932
-4.114385128 3.766986847 1.495505691
0.096620880 -0.060081102 -0.301570475
-0.128458291 0.600405157 -0.332411706
-1.960470319 2.132749796 -0.065962851
-2.347615004 1.014828444 -0.253314972
0.234795347 -0.059296396 -0.322593957
0.900468767 2.613565683 -0.254760593
0.545137882 1.829968452 -0.945237398
5.743227482 1.726520181 0.911284447
0.122509696 0.126542598 -0.220427632
0.000048068 2.758520842 -0.215571567
0.063396990 2.287640095 -0.451915175
2.240648270 2.699827671 1.532220602
-0.059749346 0.662501752 -0.340040386
-2.378985882 0.635316372 -0.227023065
-1.160925627 0.334600598 -0.237913564
0.576901019 0.358826667 -0.948267043
0.489790499 2.177083731 -0.940955222
-2.851549864 1.165890098 -0.752596796
-8.455879211 8.470084190 1.306252003
-3.103787899 0.739604056 2.184526920
-5.195018291 1.247884870 1.006464124
-4.196446896 0.734932840 1.554791212
0.563365579 2.234275579 1.126569510
1.938349843 3.573776484 1.435485959
-1.114640594 1.487301350 0.021891881
0.131142467 -0.071224853 -0.281728208
0.144792631 0.101458751 -0.216649786
1.914081335 3.034324169 -0.149952412
0.689538240 6.238411427 1.552385569
3.626666784 1.413980722 -2.610182047
-1.136621594 2.517082453 -0.414559007
-1.234065294 -0.177005604 -0.954276085
-0.586781561 -0.350248873 -0.961467147
-2.782883883 0.893451691 -0.849813104
2.019316435 2.084341526 -0.899505556
1.220743775 1.129891396 -0.929378569
7.114014626 5.317224503 -0.614369988
-0.114644103 1.137772441 -0.415075988
-1.869979620 2.164147854 -0.271688879
0.141591385 -0.076245420 -0.325986773
4.952258110 0.964779675 0.615433872
2.729268312 1.539347291 -0.753497481
-1.852335453 1.421785355 -0.489751726
-8.302546501 5.727803707 1.267507792
-0.596786857 1.637730002 -0.298318505
-5.312741280 0.773249388 1.613398790
0.098486930 -0.057609685 -0.296262234
-0.011155796 1.039949656 -0.343831569
-2.666406393 0.588482141 -0.399601549
-2.353131771 1.219870329 -0.544425309
-1.243133426 -0.236080468 -0.690497041
-5.329802990 5.971820831 1.469610453
1.040421963 -0.334457576 -0.289263427
-0.704228461 -0.799306870 -0.328482956
-1.267488360 1.421417475 -0.231303081
0.878266275 1.833222508 -0.949720323
-0.859980047 2.453892708 1.703656793
0.542319238 1.807016492 -0.940183282
-0.707572520 -0.060930222 -4.708197117
-2.448198318 0.726624787 -0.982562065
-1.289100766 -0.145061478 -0.356759578
0.770868838 2.318678379 -0.515080690
0.462122440 1.986086011 -0.548089743
0.606926799 -1.366182208 -0.237765104
-3.336552620 2.683131933 1.659631848
-4.916703701 0.498531669 1.608178854
-3.943463564 0.334345371 -0.348688185
-0.987281501 1.927445292 0.189260393
0.188208938 0.265082002 -0.214387491
1.239851832 -0.178622410 -0.852403462
1.094470382 -0.243801415 -0.870521486
1.620900154 0.927582443 -0.140478179
-2.870927572 0.598724902 -0.437814355
-1.647636533 1.930920482 0.218687356
0.810728192 2.315982103 -0.191151664
2.152466774 3.056131363 1.547386289
-1.975319147 1.205463767 -0.272997200
5.167741299 4.299693108 1.317652225
1.314481020 0.345125586 -0.952202141
0.163503602 2.693049908 -1.047171712
0.366238415 -0.963323236 1.924246669
2.219700336 -1.274296284 -0.332265496
2.406241894 -0.583537400 -0.235355645
-0.031358238 0.662570000 -0.338957578
1.506734967 4.522453308 1.582950950
-2.130106211 1.338469028 -0.802264392
0.170025781 0.268815756 -0.338164300
-0.002689348 0.434949875 -0.338309944
-0.136502638 0.384409875 -0.336150587
-2.413258076 1.239508510 1.209773302
0.350069225 -0.799056351 1.841092467
-1.726609230 1.513970971 -0.229586780
-3.663662672 2.937868834 1.837955594
-2.991018772 1.815962791 0.124807671
1.040216923 3.094634771 0.113886036
-2.391528368 0.977248669 -0.283152163
0.111263171 -0.245485544 -0.334127605
-3.752498150 4.076858997 2.064673662
0.820973516 5.960731983 1.404724002
-2.270875454 0.976214468 -0.604586661
-2.039236546 1.347569227 -0.549612522
-2.724045038 0.614231348 -0.392763168
3.764139414 3.540278912 0.186000630
3.963573694 3.728355169 0.181336775
-0.025445107 0.679213166 -0.340487868
0.573916733 -0.784478784 1.905687094
0.975760520 5.295069695 1.505210876
-4.810207844 5.520289898 1.358928323
-2.989791155 1.788295388 0.074058227
1.292919159 1.152425528 -0.942761779
0.892432272 1.981338620 -0.377570391
0.519194245 2.888357878 -0.798802435
-1.836366534 1.821435571 -0.047936216
2.302610874 2.823911190 1.549390435
-2.198651791 4.683360100 1.610527635
-4.843558311 4.668765545 1.965594411
-1.060906887 1.428383589 -0.263958603
-0.763631463 -0.500633061 -0.337925017
0.056256708 0.609137475 -0.333699286
-1.008615375 -0.465873718 -0.306708485
0.056395076 0.199395895 -0.334685266
-0.000000517 1.065541983 -0.337757081
0.070916168 -5.325242996 1.538373828
-4.513903618 -0.073899165 0.263653129
-4.149846077 -0.606462598 0.391755402
-2.393003464 1.069062114 -0.989773273
-1.177486300 2.214912415 -0.007824322
-0.696626127 -0.782671809 -0.324658304
-4.696170330 1.596224666 0.733718991
-5.722374916 3.253320694 0.381154209
-8.755392075 5.924073696 1.352688909
-0.005788321 1.055447459 -0.339756101
0.464824528 0.183002904 -0.387200832
0.097418286 0.880421460 -0.400443256
0.231495842 -0.073296539 -0.336593568
-5.444960117 -2.284878254 1.462766051
-5.383503914 1.525281668 1.045496583
-6.726825714 8.598895073 1.525695443
0.626612306 9.469605446 1.233342528
-6.597921848 4.150241852 1.591247082
1.774966836 3.404962540 -0.242664665
0.118529454 -0.238538682 -0.332262099
-6.939137936 -1.255641699 -0.990265548
0.436695427 0.148789614 -0.828545094
-1.008679152 -2.266678095 1.636021972
-0.448569655 0.818943381 -0.342428625
-0.918373764 2.290178061 -0.248919010
-4.416749477 0.499454111 0.727351725
-4.790387630 0.700454175 1.535705209
0.126347005 -0.082123548 -0.281240970
-4.980854511 17.881320953 0.065940201
-2.033194304 -4.783347130 0.767177343
-2.800408840 0.666703463 -1.000962019
-0.220139444 0.579267204 -0.337813586
0.492653579 2.297393084 -0.997971654
1.883375168 3.368414164 1.342943192
1.835351586 3.336327553 -0.573394537
-1.375829220 0.098404489 -0.274224460
0.140779197 -0.076854438 -0.327335000
-2.982955217 1.120015383 0.040359966
3.303327322 1.264848590 -0.852076471
2.474807501 0.894881487 -0.939934194
-0.718731403 -0.552275598 -0.410307169
-0.236004010 1.176417708 -0.871544600
-0.932110131 -0.824869692 -0.525467217
-2.437944412 -1.623502851 1.478815079
-1.631788731 -1.934776425 1.996404886
-4.394009590 -0.234346390 0.240198553
-2.105192184 0.065063097 -0.018853942
-4.652143955 1.981296420 0.156545311
1.626602650 4.021316051 1.521550894
-0.215432778 8.139064789 1.412829757
1.960682273 2.062893152 -0.091303110
-9.280067444 4.610123634 1.597264290
-8.744268417 4.481410503 1.504657626
0.182942227 0.265032500 -0.220496640
-1.927403331 -0.513715029 1.392876863
-4.626057148 0.073087797 0.039979238
-10.195287704 5.895038128 2.394862175
-1.152086139 1.383284688 -0.006512635
-1.009625196 -0.707966745 -0.548837841
-2.409221411 0.749793172 0.060958996
-13.789211273 22.999942780 0.315938950
0.058875911 0.291954130 -0.278910756
-2.141447306 -0.694486558 1.496080160
0.223211482 -0.126327172 -0.365906268
-0.980166078 2.403172493 -0.563980401
0.116771154 -0.236397147 -0.335633576
0.548511088 0.353362769 -0.594581366
-0.031310331 0.999696553 -0.975065708
0.035592832 0.200705528 -0.256942302
0.123784065 -0.061912477 -0.331841111
-1.643900871 1.949518800 0.184530243
-1.112473249 -0.430074722 -0.266519427
-5.609879494 0.862135589 1.685786843
-0.102123104 2.613010883 1.655102372
1.681803942 3.444829226 0.143902406
-0.103072353 1.446289778 0.407489449
-1.842853308 1.406284451 -0.489876807
-6.460505962 4.058039188 0.986079633
-4.221303463 -0.671503067 0.397139907
2.740073204 1.162588120 -0.315898627
-0.411554694 0.480906010 -0.403958499
0.568782270 0.381999373 -0.909707963
0.020411639 2.470112562 -0.961260736
0.059282124 2.300814867 -0.884313941
0.099140525 2.539048672 -0.070008866
-6.483352661 8.270823479 1.479269385
-0.896478415 -0.474022180 -0.375039190
0.881800175 3.141090155 1.695059896
0.613867521 10.177535057 1.316375732
-2.113267899 -0.672660828 1.508320689
-38.672164917 2.230679512 -2.040411234
-1.321083665 -1.036213040 -0.684195101
-9.552925110 6.183479309 1.950429916
-0.211663708 3.264012814 0.064971611
-10.194129944 3.644009352 1.693693280
-1.647503257 8.128759384 0.093885481
-2.327131033 -1.546697140 1.407342315
-2.411766529 -3.024699211 0.754938960
1.695467472 4.035213470 1.633801937
-0.799468040 -1.135067582 -0.344304025
-4.744688988 0.726013482 1.505801797
-3.193272591 -0.376437753 1.490460396
-0.836491168 -0.353130162 -0.537251115
-5.008064747 1.265425205 0.974566042
0.684623539 1.922446132 -0.628774941
-7.613564491 6.531225681 1.519488215
-0.067897856 0.404872447 -0.332058668
1.219115019 2.970042229 -0.812622905
-0.442687392 -3.280187607 0.089038104
-1.284433603 1.430188775 -0.986204803
-4.354492188 -0.728565991 0.399598241
0.269227296 -0.098384157 -0.323265672
2.339694738 0.408177823 -0.925616026
-3.010035992 1.233500600 1.452811956
-5.431070328 3.248323441 1.568720102
-2.960537910 0.806327522 -0.026829457
-1.091089606 2.486561060 -0.280153275
-2.933833361 0.545136631 -0.426457405
-0.733375669 -0.357181609 -0.329450548
-4.323802471 3.898584604 1.533903122
-1.488583803 0.123496249 -0.392292112
0.380824625 0.667577982 -1.628994942
0.514100313 0.435065895 -0.299957365
-0.634324431 1.752880931 0.348565996
-3.150040627 0.410792917 -0.713164687
-1.860335350 -0.426829219 1.938782573
1.523848653 1.683298230 1.441667795
3.420614958 1.213958859 1.582651615
-5.232277393 1.266819358 1.570159554
0.202237174 2.708742142 -0.236682668
-1.758556128 0.181745306 -0.918638587
1.524113536 -1.288940549 -0.027578842
2.309566736 -0.911154926 -0.213205338
5.033833504 1.193045259 0.752122343
-2.135320187 -0.622840941 2.179799795
-3.267835379 -1.252952814 1.553194165
-3.197891474 -1.222477555 1.543193698
-1.505299568 -3.010545731 -0.967032194
-2.208657503 0.800289869 0.012226778
0.384209067 0.386706591 -0.414806008
0.154487655 0.567903519 -0.806667268
0.366708279 0.712331235 -0.683272660
0.561167657 0.646301508 -0.294535220
0.484122545 0.771584749 -0.721362889
0.225806311 0.186827585 -0.333206505
-0.948776245 1.654402375 -0.177003816
0.272665977 -0.088809893 -0.316628844
0.549537182 0.711034238 -0.660376489
2.193108320 0.099911019 -0.664140701
2.441428661 0.784771919 -0.274241209
1.381892204 -0.476279229 -0.451113731
2.320721149 0.521868527 -0.774731755
2.351406336 0.513356745 -0.804770470
0.523532391 0.079412773 -0.309394807
-0.922968984 0.055142876 -0.272664338
-0.133581296 0.388336569 -0.338483304
1.505473614 4.309231281 1.514432669
0.190109342 0.263689160 -0.305811286
-1.150979877 -0.440405041 -0.278850019
-1.772691131 1.359304667 -0.889944971
3.906207085 3.082453966 1.264134049
2.798792124 1.721286654 1.437153220
7.261241913 2.424364090 -1.003969431
0.857275963 1.795706034 -0.921282351
-3.718201637 2.909595728 1.849568486
0.226136401 9.874345779 2.086388588
1.994158268 1.352837443 1.248957634
-2.722043991 0.442711979 1.957524896
0.749065995 0.750323653 -0.418146104
0.749852538 0.799207151 -0.455814958
0.520920992 0.017636936 -0.716610193
0.789884388 0.796617806 -0.446513653
0.839165866 0.496609539 -0.142505392
0.341106951 0.747745812 -0.744445503
0.775673270 0.978673637 -0.616726816
0.805290699 1.119644523 -0.728976727
1.220266581 1.260655046 -0.668656468
0.461580485 0.850118399 -0.852387786
0.410287619 0.589981139 -0.822189808
0.175196022 1.372167826 -0.617908001
-1.324091434 -0.141327783 -0.375086337
-4.627017498 0.691079676 0.796951950
-5.256334782 1.526909113 0.699177265
-1.468856215 0.124286272 -0.369205654
-1.380819559 -1.763361692 1.838166118
-0.699865520 1.737358451 -0.222689107
-0.943421662 1.674204350 -0.342898190
-0.349441141 -0.790009081 -1.053007603
-1.560084343 0.108038180 -0.422825128
2.050810575 -0.563148201 1.659117460
-0.823283494 -1.190278292 -0.336995155
-1.036932349 8.248903275 2.153856993
2.206070662 2.537629128 0.009888438
-4.820343971 1.677464724 1.370239615
-0.636684358 -2.120332241 0.163058087
2.167835951 -2.387243032 0.102988161
0.122074760 0.082040310 -0.257951677
-0.233822510 -1.452908635 -0.409733027
0.478482783 -0.326872766 -0.691252232
-1.256871819 -0.203325361 -0.962393403
-4.980609417 0.441781193 -0.202759966
-1.048146605 -0.745251894 -0.582001150
-5.216627121 -0.435383439 0.305495143
0.348010212 -0.073903993 0.177141175
0.507574379 -0.088967070 -0.555395603
2.377232552 -0.603628337 -0.880025625
2.119524240 -1.465693235 0.053593565
4.422594547 -2.347481012 1.355412483
7.481512070 -4.019575596 1.162310362
-0.539627194 -0.336182207 -0.925507903
-0.718209445 0.213808566 -2.075681925
-0.460898370 0.825597048 -0.343266547
-1.683073640 -0.501255572 -0.003804405
-2.218616009 -4.917080879 1.625329852
2.154785395 -0.358220309 -0.450833589
0.461562186 0.811698437 -0.756101131
0.817640722 1.680926085 -1.187026978
0.937880039 0.671595633 -0.245775819
-0.357284248 1.695904970 0.594070673
-1.216714382 -0.279056817 -0.720247865
-0.832683027 4.718483925 0.106122777
-0.516820669 -0.294192314 -0.891892612
-0.134332418 0.387062728 -0.338463783
-3.303226948 -2.609440804 0.412098974
-1.085589886 1.469834089 0.005663234
-3.863656759 -0.225034297 -0.040165696
-1.550845027 -1.367870450 -0.044760317
0.981002510 -0.239784673 -0.261659116
-0.000947230 1.064042807 -0.339749008
0.639784336 0.253221333 -1.077808261
-0.602239013 -2.273650408 -0.119713716
-0.538289964 -2.261275053 -0.986441731
2.643343687 -3.381620407 1.697834849
0.542624354 0.398271143 -0.705310881
0.498417199 -0.000471907 -0.876612723
-0.654838979 -2.110805988 -1.394695401
-0.507228315 -3.950231791 -3.921477556
-1.119813204 -2.632462263 -1.843031883
-1.134623885 3.361203432 1.056008220
-0.499634117 2.097193718 0.497193158
-1.871031165 -0.592623711 1.409263372
0.004141026 -0.640510798 -0.795980453
1.212515712 0.592143476 -0.795868933
0.232093528 -0.066379219 -0.312146813
6.078402996 -0.563464820 0.517202139
-0.667043328 2.883820772 -0.882703424
-4.341123104 17.172334671 2.452371597
0.552225947 1.135034204 -0.889988899
-2.025985241 1.264284849 -0.071260922
5.318201065 -4.781665802 1.381259441
5.289910793 0.551805794 1.487359524
-2.393114328 4.852714539 -0.396006376
-0.673390985 2.109299183 -0.132663205
-1.192742229 -0.831807077 -0.782205164
-1.143555045 -2.639692783 1.451709747
-0.532836437 -2.497117281 -0.137880787
-1.955791235 2.189861298 -0.087415881
0.446820319 -0.089685671 -0.398553878
0.055447116 0.605006158 -0.332800865
-0.008474394 0.642141938 -0.339156061
0.554466963 -0.697653592 1.829468727
0.100541525 -0.160468265 -0.471025139
-1.614753962 -1.861967444 1.920428157
-0.094350971 -1.834502339 -0.595784485
-3.350466490 -2.548697472 0.421838909
-1.559254766 1.688672185 -0.013500948
-6.212768555 -0.328577161 1.434887528
1.216524720 -1.210456967 -0.475503594
2.322234392 0.443642706 -0.805949390
0.518813372 1.187507987 -0.734961629
-1.030360818 -0.777035236 -0.984086037
0.471573800 0.480683595 -1.054512858
0.260066956 -0.109409101 -0.310651898
-5.458340645 2.499636173 0.419428170
-0.439062357 -0.337727398 -0.806274951
0.338010997 1.233528495 1.795476079
-3.632880688 3.972860813 2.023429632
-3.054003239 1.210695386 0.097695626
0.549611449 -0.006945543 -0.327902466
-6.237129688 2.035357714 1.266149759
-2.972664833 -0.213104367 -1.262173891
-2.191654205 -0.716545522 1.511733890
-1.780749917 1.737185717 -0.059492841
1.941294909 -1.520641208 0.058306575
-2.556574821 0.809522092 0.073477104
-1.678800464 -0.511772692 0.212181538
-0.152118579 -1.695594192 -0.669541359
1.492204189 -0.747782290 -0.423104793
1.368934870 -0.151600137 -0.287815928
0.385384679 2.401252270 -0.198011160
-0.990307391 -2.284949303 -0.064344265
-2.455810308 0.774276137 -0.363598019
-1.095328689 -2.721229792 1.515726447
2.883395195 0.533264220 -0.258785397
0.460341960 -0.063897535 -0.339751780
0.548000097 0.239873230 -1.191445112
0.050725076 0.255602092 -0.226530492
-1.817309260 0.022898834 -0.010215989
-1.046316385 -0.871082962 -0.566445768
-8.460958481 5.380277157 0.449882060
-5.651812077 1.578548908 0.758009791
0.434018791 0.998680353 -0.671076894
1.083617926 -0.603928626 -0.881318152
1.123405337 -0.626899540 -0.912198544
0.397885978 5.211322308 4.105655670
-0.202619612 0.461958826 -1.526068687
0.967997253 -0.274615288 -0.763221383
0.068127029 0.224881306 -0.225890368
0.209171787 0.250793099 -0.208617464
0.195681810 0.263981402 -0.254603177
0.270450741 -0.099192850 -0.327429593
-0.342773348 -1.373425484 -0.991725862
1.275497913 0.235086381 -0.856124640
1.405600429 -0.334260792 -0.331070662
-0.741952956 -0.248077616 -0.915641785
-0.556423306 -0.227098212 -0.864680409
8.893633842 5.349246979 0.344384134
0.550982118 -0.017865758 -0.337679327
1.449915648 -0.284528196 -0.455802679
0.237309709 0.185259774 -0.233699501
-0.624165654 4.303153992 0.141604409
-0.414604276 2.496136427 -0.266467005
-1.037259221 -1.297157526 0.011121237
0.029254643 0.138425961 -0.233832419
-2.942974806 -3.429689884 0.761124432
0.215028763 -0.537944436 -0.400992185
-1.100121617 -2.209207296 -0.992543459
0.523653805 0.074224986 -0.328760803
1.330777287 0.455304265 -1.209380031
0.474856883 -0.105164453 -1.191238880
0.162357897 0.352043301 -0.837962270
0.574970007 0.448577553 -0.290901214
0.791248739 0.526242316 -0.067565553
0.251793087 1.612108469 -0.289013654
-0.490087211 -0.481839776 -1.980194211
-0.723741949 -0.359109044 -0.336282760
-5.288712025 1.550900817 1.057583451
-0.328419685 0.720685899 -0.617671967
3.466167688 3.026962280 -3.265293837
0.707603097 -4.416712761 0.275888622
-5.639188766 -2.371560097 1.462309837
1.213250041 -1.565028906 -0.129231051
14.676696777 -20.689525604 12.304648399
39.840393066 25.950902939 -71.977806091
-2.429024696 -7.808013916 -12.820249557
0.439298511 0.714355707 -0.241456270
0.600275397 0.797821999 -0.555169761
0.374184549 0.003000423 -0.422001660
1.150833726 2.514775515 -0.522682786
-1.862191677 -0.062893152 -0.785680294
0.538109839 0.002039558 -0.338208288
-0.599515021 0.780725598 -1.678024173
0.059660736 0.205068991 -0.208554074
1.174723864 -0.721006155 1.086491227
-1.267664552 -0.250546396 -0.592432320
0.483708590 0.053040080 -0.426296979
0.453115791 0.874385774 -0.102690212
0.160863489 0.282161623 -0.218188837
2.364313841 -0.415943086 -0.952082932
2.275801897 -4.833955288 1.812886953
2.429456711 -0.571753085 -0.146004021
-0.256280571 -8.201764107 0.794292390
0.060253005 0.608783007 -0.329126030
-0.389616132 0.807511628 -0.969947159
-0.637538612 0.037786100 -0.704133272
-0.098840058 0.646304131 -0.333419234
0.061207458 0.608700693 -0.329619080
-5.011468887 -0.274214894 -0.017958822
1.585123658 -1.678447723 -0.344572037
-1.364063978 -2.038093567 1.942307115
-4.129905701 0.566935599 0.634945452
-5.134784222 0.140704423 -0.679041266
-1.659169674 -0.457594693 0.197959453
-0.348934263 1.498723626 0.050120037
-1.817093015 0.119510934 -0.068207458
-1.072052598 -0.492380202 -0.317139298
-2.129860401 0.049926154 -0.702145934
-0.529140890 0.006508035 -0.778490305
1.931491733 3.514701366 1.404993415
0.746507347 2.829640150 -0.333523333
0.808695912 6.026582718 1.415177226
-3.303011656 2.008958817 1.909287453
-0.906370997 -0.337207049 -0.892712891
0.081317216 0.192196339 -0.324268758
-10.439409256 -0.078161560 2.106092691
-4.644463062 0.192983970 0.213510513
-1.871324658 0.160706609 -0.985720217
3.400230885 -0.228904039 -0.260385513
2.459768057 0.503997147 -0.374904245
-2.438552380 -5.425938129 1.282070518
-2.155306339 -0.649012387 0.216719687
0.484766871 0.398195565 -0.490235984
-1.207789421 -0.580115378 -0.352198839
-0.571942806 -0.745399296 -1.243029594
-4.257850647 -0.611755073 0.388357550
-2.319472313 1.176156044 -0.554259479
0.669887185 -1.488155007 -0.394711465
-4.259716034 3.748904467 1.472685218
0.169057846 0.275868744 -0.329005748
-2.071993113 1.691113710 -1.026034713
1.736591101 -0.058578588 -0.580963671
-1.717777133 0.025065972 -0.430345476
-0.432206243 0.792224526 -0.340201885
3.511368752 0.407829046 1.566557169
35.186946869 5.591612339 -3.975857496
2.741913557 -0.285510778 1.679387689
2.129887104 1.313020587 -0.310798198
0.097799458 1.098953962 -0.187770203
-0.270756274 0.621276140 -0.328938633
1.405333519 -1.400830746 -0.527212083
0.490124017 -0.013660476 -0.506964922
0.252161056 -1.718059897 -0.519408226
1.361123800 -0.526789546 -0.986677349
2.328493595 -1.951288819 -0.095151670
4.968435287 0.971270323 0.588184118
8.370104790 3.030318975 0.935615242
0.552218139 -1.543499470 0.507914782
-1.085287929 1.737907648 -0.149005860
-0.962571740 0.268301368 -0.961702168
-0.553538203 -0.358498693 -0.962206304
0.100011237 -3.028279066 1.592930555
-0.217538834 0.576878846 -0.336515486
0.525990188 0.780852795 -0.900343478
0.347877890 1.270256758 -0.074265003
1.991469502 0.862362564 -2.576133728
-0.223281592 0.578341961 -0.340655953
1.062197804 -0.301559418 -0.318469226
6.349325657 -4.139050007 0.168963566
-1.822328329 -5.511170387 0.681524098
-4.880894184 -5.552906513 1.573528528
0.108439237 -0.206822976 -0.345195532
2.253511667 -0.515243411 1.650320411
2.360482216 -0.576680958 -0.222475365
0.202517837 0.077612109 -0.212056115
-2.213569164 -2.674298286 0.395352542
-1.137689114 -2.786943436 1.533108950
0.851557612 -1.591724038 -0.835495412
-6.729005814 4.527500153 1.537168264
-2.186994791 -4.106071949 -0.934863448
-7.397795677 0.497969776 1.034481406
-7.646133900 2.551372290 1.203215480
-2.301335812 2.349125624 0.384190708
-5.493836880 -2.309673786 1.467218399
-4.352061749 -0.188609019 0.180434614
0.090884596 0.275818884 -1.001730561
0.225879118 -0.060498502 -0.322772861
-0.224402115 -0.924239874 -5.783015728
-5.665882587 -2.422976017 1.494679451
-4.744942188 0.434579343 -0.188672140
-2.205509901 1.342728972 -0.052000813
-6.817423820 11.448835373 1.501288891
-4.321415424 -0.249426290 0.267795801
-1.162282228 -0.443893552 -0.740901887
0.655339539 -1.549418807 -0.711266935
-0.977692664 -1.490798712 -0.380170852
0.060784634 0.606242657 -0.332630187
-0.244608462 -1.384514451 -0.504580736
0.060471445 -2.029033422 -0.277529627
0.555414379 -0.006136424 -0.332096219
0.042847756 0.199740812 -0.253716558
-2.045294046 0.267998636 0.168273598
-1.006994009 -2.318596840 1.652910948
-1.283136249 1.454792976 -0.178530738
0.055509631 0.472881049 -0.334667057
-0.081360459 0.499799669 -0.334639400
-1.037582397 -2.151459694 -0.254085898
2.610603094 -0.339252621 -0.799599767
-0.134883106 0.400789678 -0.341252238
1.086581588 -0.135508537 -0.373644501
2.792059898 -0.480007201 -0.277449906
1.421500444 -5.621201038 0.142437994
1.929239869 -0.353222877 -0.443528146
0.401087105 -1.835911751 -0.292604208
-0.849519789 -0.302580565 -0.337596595
-7.426255703 -1.896057606 1.533040524
-4.503858089 -0.278048187 0.281535119
0.063672252 0.468173265 -0.339522779
-2.636914492 -1.788989782 -0.047897562
-1.430458903 2.953297138 0.537583172
0.055807322 0.939884603 -0.449805945
-1.571720243 -1.895148277 1.927172661
0.066204883 0.763435662 -1.285353303
-1.337868333 -1.956932664 1.910263181
-0.100165367 -1.645702481 0.225145683
0.206543595 -2.644267559 -1.045633554
0.480355352 -0.632570326 -1.305643916
-0.971129656 -2.569341421 -0.881238282
-0.642009676 -2.234833241 -0.387102872
-0.278544456 -2.592310190 1.608006835
-3.117690325 -4.809449673 0.043948282
0.801496267 -0.918034375 -1.797984958
-1.332702279 1.521194100 -0.010106874
0.195340469 -1.607181311 -0.847615063
0.662711322 -2.024947882 -0.609192491
0.642152309 -1.399599314 -0.252698570
-2.768329620 -2.361654520 0.487410396
0.048593532 0.549626827 -0.352423221
-0.978092909 1.940413356 -0.253589094
-2.372585058 -5.463958263 1.013430715
-2.685148001 -3.979728222 1.569722056
-0.976567447 1.967308521 -0.266747326
-5.032026291 5.728145599 2.063237906
0.244693041 0.237386018 -0.223393321
-2.145189285 0.030847494 -0.025366860
-0.508376002 -2.982291937 0.142291725
-4.692197800 0.689189136 0.565739870
-2.714684248 0.883167684 0.427115411
-0.454128772 0.822888255 -0.345290065
0.091096550 -0.192862615 -0.335167617
-1.051014066 -3.366040707 0.103095405
2.392332554 0.735774279 -0.833528757
2.914299011 0.234841451 -0.312041193
2.528360605 0.753948212 -0.281519979
0.563459754 -0.000937989 -0.320751190
-3.013861656 1.104140520 -0.236399546
-3.676043510 2.950969934 1.881382585
-0.943637490 1.912581801 -0.273707569
0.492736250 -0.013134218 -0.499460995
-1.164696217 -0.163393989 -0.945243359
0.932006478 -0.330908656 -0.342853189
-2.270761967 -4.622441292 0.169052556
1.628087759 -1.211153984 1.609529376
-0.877269268 -2.218707800 -0.730245531
1.098291159 -0.254273385 -0.867393911
0.112312093 -0.244495302 -0.333565116
-0.670161903 -2.050508261 -0.095467657
0.287121147 -1.926408291 -0.751981735
0.249751419 -1.734282255 -0.788729310
-0.003462621 1.054252863 -0.338867486
-0.766765893 -0.630953848 -0.392208219
-3.006372690 -3.476298332 1.640287161
-0.088078246 -1.812998891 -0.598427057
9.965970993 4.240573883 0.444856346
3.785927773 0.534131706 1.717997193
-3.396960258 -2.603892326 0.406358689
-4.844868183 -0.887948513 0.378280908
-2.995912313 -3.469417572 0.321535408
-2.972918749 1.246312261 1.461412668
-2.779622316 1.859403610 0.032584246
-1.560665965 -1.122801185 2.700309038
-1.896175742 -0.396334320 -0.559471965
-1.593406677 1.297882915 -0.868184686
-4.479673386 12.718635559 1.334216833
0.129712254 0.125868142 -0.332187742
-3.122512102 -3.591448545 1.675709844
-5.770390987 1.829782724 0.221583560
-5.592085361 1.800112605 1.561559558
-3.332789183 0.336317956 -0.788452089
-1.130772710 -2.666124344 1.466381073
0.218268186 -1.973082304 -0.875646293
0.258333147 -3.053345203 1.608239055
-0.222587660 0.575805604 -0.343610913
0.131090641 0.025255620 -0.480611563
-1.145208120 -0.495585322 -0.616558433
-6.274385929 -0.284746408 1.475835919
-0.524921358 -0.845018625 0.202227712
-0.001932219 1.062300920 -0.340210587
0.617138624 -0.706180632 0.972652316
-3.221599340 -2.529018879 0.396198362
-2.063927412 0.127175838 -0.552801609
-1.673801661 -0.103613488 -0.621719420
-3.433780670 0.418739736 -1.018260241
-4.560650826 -0.056737725 0.272839814
-0.745930851 -0.365785539 -0.338301629
-3.452278614 -3.012571812 -0.002541621
-0.901705444 -0.449175775 -0.018395824
1.061335206 -1.993563175 1.646568656
1.666060328 -0.466215700 -0.491013080
-0.310314357 0.743318737 -0.599546313
-3.841933966 3.021036625 1.948725104
-3.370439768 -2.609040737 0.406223267
-2.613972664 -3.714720964 1.528097153
-2.952120543 -3.404480934 0.329741627
-1.136465549 2.198884010 0.099922150
-1.011020303 -2.204240084 -0.562585175
7.918629646 3.341118574 1.214619994
1.374841094 2.860444546 -0.109310560
1.236847520 -0.784372091 -0.392251879
-0.013258722 1.046769261 -0.340008765
5.104290962 1.942425489 1.401526570
-0.565773547 2.283683538 -0.290942103
4.464858055 3.737993002 1.143187046
-1.179314494 -0.184071928 -0.931754827
-0.668929219 -2.288105011 -0.065196939
0.174190164 0.281168163 -0.337827891
0.618564308 0.712604403 -0.483493179
0.614634275 0.799901664 -0.572124720
3.098241568 -9.104990005 0.976781309
2.314538240 0.796608984 -0.259101838
-3.741905451 9.584529877 5.535617352
-0.233716309 2.437270880 -0.496007681
0.045577481 2.467519522 -0.914394081
-0.004653810 2.646902084 -0.984685361
0.029424272 2.490720272 -0.924584568
-1.251234651 -0.279279828 -0.561937869
-8.868535995 0.014498316 1.844722033
1.812495470 -0.767201304 -0.512195647
-1.014001846 -0.180037111 -0.329453796
-1.541516781 2.446421385 0.250155717
-0.061767619 0.632467330 -0.339653432
-6.400456905 -4.340923786 1.536110282
0.390688181 2.457519054 -2.993457317
-1.128804326 -0.416071385 -0.312958628
0.923404992 -0.348764420 -0.343515128
-1.991809607 1.220914602 -0.357324302
-0.158014759 -1.724373460 -0.685689151
-1.828246951 -0.152054086 -0.675010443
-0.904690623 2.196877003 -0.549182355
-6.313487530 2.324000120 0.837095439
-0.255573392 -1.299928188 -0.354942441
-0.881538391 1.557597756 0.052049737
0.072298512 0.468352020 -0.335552424
-2.581266880 0.570925951 1.892957091
0.310362011 -1.394207716 -0.620913386
-1.797000051 -0.031655196 -0.746727169
-1.008053780 6.204755783 1.697626114
-2.100581408 1.300461173 -0.505326390
0.605563819 -0.024651276 0.375301987
-1.195957899 -0.500486016 -0.086619124
-2.628207922 -1.150644422 -1.144283652
-0.057858694 0.359549254 -1.046491146
0.012512514 0.629084826 -0.320717305
-2.680850983 -3.888387203 1.553157687
-1.839158893 -0.051487371 -0.646728396
-0.025121264 0.676850736 -0.337335408
0.472878098 0.001036607 -0.845461905
-2.259100914 1.400432348 -0.597582519
-1.057037473 -2.606763363 -0.014582918
0.000965349 -1.993607759 -0.295693994
-7.105642796 -1.736541510 1.282598495
0.690375090 0.160446063 -0.588965952
-0.061672654 -2.601890326 -0.206490591
-2.567916155 -10.050939560 -39.223724365
0.236442521 -1.920299292 -0.311125576
-0.673751235 -2.130476236 -0.112184823
-5.335906506 0.126048982 0.248678938
-0.548133254 -2.568042994 -0.216629744
-1.145165801 -2.743611097 1.503864408
0.654935300 -1.406312346 -0.267168462
-0.766099989 -0.502700627 -0.322253823
-0.001800058 0.361733317 -0.340103775
5.802817345 3.711161852 0.619119704
-0.394247234 0.810162961 -0.986924291
-0.383439004 0.810359836 -0.515826583
-0.503588080 -0.304967940 -0.654517293
-0.677552402 1.697526932 -0.230550602
-0.725045204 1.887855172 -0.254483432
2.771802425 -3.570657969 1.801696301
1.490446329 -0.367621571 1.042748928
-0.808653355 -0.184994727 -0.745122492
0.846412539 5.799729824 1.525727153
-1.172363400 8.875890732 0.996503055
0.979079068 5.078357697 1.470275998
0.201716587 6.727280617 1.451959133
-2.528966665 -0.139150187 -0.742240071
-0.728013039 -5.101841450 1.015379190
1.701969385 -3.224196911 1.296437621
1.630582571 -1.036559701 -0.220797107
-0.225415647 0.579553783 -0.334890246
0.357191592 -1.908812284 1.512390137
-4.165503979 -4.019096375 1.413568258
1.752154350 -0.498443931 -0.372668773
-0.781777501 -1.781118631 -0.766483247
-1.675261497 -0.491839111 -0.007256312
1.145794511 1.052450895 -0.597885609
1.919739246 -0.982072711 -0.259162098
0.233505636 0.221783519 -0.225950167
-15.118613243 2.528921604 1.032049656
0.002599138 -4.939960003 1.436426878
-1.768522024 0.037729222 -0.438647121
1.101910830 -0.655058444 -0.943355143
7.000692844 -6.192075253 1.367543221
-0.290570229 1.471004367 -0.563665211
-0.362300992 1.391900778 -0.452064276
0.360991627 -0.895369112 1.947707534
-0.413145661 -0.020681832 -0.495966643
4.766609669 -20.727596283 10.377068520
0.371320903 -1.917353511 -0.296148330
-0.625788808 1.605405807 -0.173637405
-1.186352491 1.692082524 0.047335174
-0.140426427 -1.717160463 -0.660184860
0.517733455 0.020858545 -0.335217297
0.072132729 -2.049445868 -0.299677283
-0.152984202 -1.686061144 -0.381952107
0.370327324 -0.954782367 1.954753637
0.997952938 -3.073467493 -1.377588987
-2.139975071 0.118072465 -0.935928583
-0.604420066 0.751979113 -1.636194587
-7.284599781 -0.586323023 1.433423758
-6.180385113 0.382178843 1.917710543
-2.188721657 -4.373800755 0.758900762
-0.354656339 -0.586025238 -0.962329566
2.687848330 0.671618700 -0.297999978
2.778720140 0.717514873 -0.323323607
0.006500352 1.746452808 1.552718878
-0.081573658 0.226139352 -0.349981904
-0.083105125 0.227160588 -0.350404441
2.099346876 -0.012640598 -0.922635674
1.133328319 -0.613274336 -0.789568722
-1.827151299 1.641139865 -0.292509496
-0.934786081 1.211953759 -3.608015776
-4.397006035 -4.278809547 1.460731745
0.502764046 -2.189311504 -0.320266634
-2.648749352 0.431482404 1.918745160
-2.024260759 -4.044920921 0.959203124
-7.296078682 -1.817760110 1.417410493
-1.707735777 0.093584128 -0.713492215
2.500821352 -0.073874876 -0.552557051
1.951789618 -0.705795050 -0.562661409
0.027860202 1.314580083 -0.205138311
0.255381197 -0.067310207 -0.326044142
-0.139145598 0.396602541 -0.341389596
2.860484362 -0.200028151 -0.653517604
6.398430347 3.995228052 -0.597182691
-2.732081175 -5.930667877 0.203136817
-4.269005775 0.120830104 0.059982840
-1.305395246 -1.818094134 1.838032961
-1.727867484 -0.502859056 0.051262107
-1.922649384 1.206813574 -0.328827918
0.491282642 -0.045683544 -0.536765456
1.159486413 -1.551223755 -0.389600158
-1.344285250 -0.317312926 -1.055932403
6.351893902 71.476791382 30.490034103
0.208533138 0.082009748 -2.390804768
-1.110468388 -0.436929315 -0.274590015
-1.275931597 -0.133611932 -0.939013243
-2.552786589 0.768677890 -0.383706808
-2.058914185 1.629814029 -0.167379484
-2.810169220 -3.265519381 -0.102826655
-3.194733858 0.394549370 -0.730030656
-2.293992043 -3.313011408 1.565874457
-2.630373716 -6.056104183 1.122288346
-1.163960457 -5.780811787 1.573700190
-0.131347448 0.393816113 -0.341457665
-2.535277128 -3.165822983 -0.095633395
-3.077124119 -2.419042349 0.038219791
0.682640731 -1.008249164 -0.799570620
0.288568616 -0.101579912 -0.886682212
0.915118515 2.435772181 -0.567447782
0.108573750 0.114301704 -0.199775875
3.855791569 -0.502484918 -0.024303736
2.396175385 0.002381515 -0.358120322
0.845742643 -0.211206630 -0.879567683
-0.192400426 0.501240432 -0.346145838
0.599181771 0.327491492 -0.987042129
-2.604127884 -2.959752083 -0.081516922
0.410749674 0.708847761 -1.095174670
-4.420410633 -0.551775277 1.520507455
-2.260948896 -4.733397007 0.187362954
-0.726014435 -0.852788448 -0.894006729
-0.692475498 -0.492174119 -0.772358060
0.177237421 -0.780753493 -0.458710521
0.621596038 0.763922095 -0.539993942
-1.655087948 -0.481922418 0.194202513
-0.623277068 -2.213449001 -0.375723571
-4.152664661 -0.664942205 0.406818330
2.166690826 0.573222995 1.501723170
0.114406236 0.114154018 -0.201059669
-3.171590328 -4.202964306 -0.112429366
0.466948241 0.074117750 -0.900744021
1.002513766 -2.560256243 -0.050665461
-0.827199459 -7.401644230 1.556965351
1.999415159 -0.698965669 -0.987319052
2.407019138 -0.574262321 -0.245756507
1.582294345 -0.204912886 -0.315293610
1.074251294 -0.209521905 -0.845247090
2.003103256 -0.170785353 -0.933478951
1.545713186 -5.853997707 0.435527384
-6.532803059 0.255186886 1.398442507
0.647551358 -1.419484377 -0.254842430
-2.217155457 -0.809508801 1.634033322
0.179831252 0.354876995 -1.098378897
0.765786946 3.122002602 1.488321662
-0.965224385 1.667062402 -0.185328886
0.047948979 1.682016253 -1.137192130
-1.284850478 -0.323777974 -0.952665448
1.114447594 0.022087194 -0.320956975
-6.079658985 -0.994601369 -0.858440936
0.223661676 0.805005074 0.584261358
-2.955398560 -1.016193271 1.414860249
-0.585587025 -5.226825237 -0.052329637
-1.127839804 -0.403202981 -0.516113937
-0.503231108 -1.734417558 -0.234543473
-4.062255383 0.467285961 -0.018833082
-0.621706665 0.786462307 -1.689389706
-3.128381491 -2.404695034 0.379733562
-2.160826445 -0.643114030 -0.027982706
1.777578712 2.242492199 -0.779059947
1.334413886 -0.522681653 -0.374542177
-2.314137220 0.022952506 -0.566064775
-2.672087431 -0.160643309 -0.396448851
0.320337832 -0.679349542 -2.891883135
-0.184182405 0.592808843 -0.341700435
-1.276957870 1.421588778 -1.006240249
-0.572308838 -0.295661807 -0.918400764
2.536877871 -1.799345016 0.078827359
0.465606362 0.096612222 -0.882995844
0.764784694 -0.051613361 -0.828256309
1.511562347 -0.994674742 0.600522041
0.194721505 -0.085791685 -0.320404053
-3.408376217 -2.634746313 1.541795731
-2.213336468 -4.030170918 -0.209508091
2.391534805 -0.565209568 -0.247509986
2.993475676 0.128847450 -1.002967715
0.282328039 0.560626507 -0.341160059
-0.741516888 -1.134713650 -0.335359693
1.969146132 -0.954567850 -0.253150344
-2.297394276 -5.002497673 1.182385445
-1.657965660 -5.887481689 1.479076028
-0.790593028 -2.032599449 -0.993280590
0.163323358 0.281077802 -0.330594003
3.287851334 -0.275385529 -0.947642446
-4.956485271 -5.653721333 1.571425796
1.435908556 0.156243041 -0.916900933
4.050142288 -4.009129047 0.057379100
0.380768776 -0.918095767 1.895413160
-1.732480407 -2.207893848 2.101565361
1.771082997 -0.305227667 -1.094527125
-25.921087265 -22.642127991 -29.490583420
4.298817158 -0.887532353 1.664199710
0.663200200 -0.707168162 0.152725756
2.603357077 0.765945375 -1.063050389
6.841518402 -3.397005558 -24.808313370
0.315544158 0.584251463 -1.554838300
1.029462576 -7.173202515 1.446474791
-0.782086909 1.988706708 -0.260670334
-0.771213055 -0.033702120 -0.921056330
-3.526307106 2.682081699 2.210557222
-0.386918813 2.551492214 -0.068200529
-0.138583198 0.383550197 -0.342703849
0.664090455 -0.841018617 1.937645078
0.926566839 -0.355826169 -0.997774482
1.133851528 -0.021655887 -0.542601824
1.724263668 -0.353999466 -0.934437037
2.636878967 -0.548087060 -0.931265295
1.104247332 -7.189516544 1.470787287
1.629325628 -0.991459012 -0.210797891
1.583885789 -6.329579830 0.193152979
0.713308275 -1.787885427 -0.573187232
0.750438750 -4.549208641 0.275809169
-2.749469995 -3.636779308 0.708207965
0.366586357 1.008331060 -0.137693301
1.006808400 0.761335731 -1.622227073
-4.246067047 0.932562590 0.008329374
-1.379614949 -1.459543467 -0.567808032
0.038741045 0.532886267 -0.343319923
0.080292411 0.093301348 -0.338972837
-0.107655942 0.389223456 -0.336944193
1.984289408 0.356192231 -0.199288234
2.460638285 1.232232332 -0.874623060
0.297583342 0.818603635 -1.583147287
0.220077500 1.157863498 -0.214899451
-0.117564999 1.029831648 -0.174286321
-0.055870481 1.049541354 -0.577422798
1.366493940 -1.228245139 -0.267794341
-2.624997139 -3.708283186 1.565926194
-1.973737597 -4.302709579 0.185807317
-0.839681625 -0.345956802 -0.704104960
1.356686234 -0.479134738 -0.983238876
1.128498316 -1.460666895 -0.366873682
-2.791736364 -4.372112274 0.433865756
0.054606147 0.191691414 -0.209748834
-2.004838705 -0.559734225 0.002264526
-0.815590560 -7.675205231 1.301293373
1.452214837 -0.725324690 -0.233096704
1.609233856 -1.722017765 -0.355276734
-0.780385792 -7.551517010 -0.042291157
-0.516529322 -2.417682171 -0.268140078
0.229844868 -3.484627008 1.774951339
-2.386754036 -5.532319069 1.736852407
-0.897695899 -0.335624963 -0.896846116
-0.582700551 -0.509162128 -0.912262678
-2.075383186 -0.550958574 -0.031548258
3.144254684 -0.237230301 -0.429834515
0.087374836 -0.209866732 -0.336714357
-1.347596884 -0.188263535 -0.364948988
-0.080015838 1.017184496 -0.803957522
0.871454656 0.822121799 -1.454228759
0.366760492 1.022642374 -0.209742069
0.938554108 1.039807200 -1.166400433
0.123355210 0.959286928 -0.315284520
1.700242877 0.149186000 -1.196964383
0.471956164 0.410468191 -1.286761165
0.544988930 -0.008587717 -0.338571370
0.056885015 0.471398324 -0.339280605
0.906453073 0.796427429 -1.566258907
-1.367571115 0.086960860 -0.271829218
-1.366793156 0.083165593 -0.272345126
-0.358228385 -0.063334949 -0.542768955
-0.718346000 -0.109906793 -0.796254337
0.133076862 3.223880529 1.696252227
0.101327203 -0.058982044 -0.313620776
0.294984907 1.043330669 -0.090551183
0.273902923 0.951383412 0.162284166
0.284781307 1.109714150 -0.216595992
0.178313330 1.057771683 -0.252253860
0.296263278 1.062317014 -0.445396215
0.846573353 0.822618604 -1.408850074
4.307460308 0.691204786 -0.460873783
2.080231428 -0.008382881 -0.907885432
4.236417294 -2.163175344 -0.119531438
3.567425728 0.117668383 1.552141666
2.649304867 1.117416263 -0.282830864
4.066320419 1.631406426 -0.652231574
3.006168842 -0.537529826 -0.206124067
2.423947334 1.207908750 -0.927995682
-0.287206948 -0.728482664 -0.991398156
1.055042982 -0.544552624 -0.152984932
-0.031634811 1.195972323 -2.358716726
6.031751633 -1.126930356 0.855421722
2.191379786 0.759058654 -0.936213672
3.476182938 -5.782658100 0.378860474
0.214537010 0.560261011 -1.326027155
-3.779972076 -6.021685123 -0.783276975
-1.560126901 1.469557405 -0.163198873
-5.045071602 0.429392338 -0.180787295
-1.560879707 1.636306047 -0.017909182
4.523631096 1.574903607 -0.584918737
1.838697433 2.065780878 -0.598040581
-0.455600441 2.565569639 -0.254989684
5.093420029 0.820579648 -0.141815498
