-0.586762786 -0.854470551 -0.055224825
-1.365532637 -0.221144095 0.510864258
1.603861809 5.000957489 -0.340593636
1.571138501 7.702496052 0.164801821
6.341391563 6.451322079 0.678379536
2.939077854 3.054656744 -0.661391437
0.819116533 -4.423533440 0.749112129
-1.384234071 -0.932998896 0.465153903
5.310987473 -0.818657517 0.167954162
-2.617964506 -0.825033128 -2.496182919
-0.571108222 -0.949574172 0.495455176
-0.132560626 -0.678038299 0.121660225
0.325378776 -1.370628595 0.280539721
0.156097934 -0.766070545 0.524128079
-1.070781231 -1.570490241 -0.030141532
0.330470651 -2.104384661 0.326872438
0.217884734 -2.040521145 -0.076116331
-1.468357682 -1.491960883 0.006960609
-0.511441469 -0.685545504 0.519457698
0.460724235 -0.887270749 0.496228307
0.326108426 -1.736995220 0.256796241
0.194511279 -1.102063417 0.509577155
-5.375090599 -0.644817054 0.232504383
5.160660744 -70.795036316 -57.984252930
-0.556893587 -0.731723547 -0.040660758
0.144008860 -1.591876030 -0.223120824
-0.240994036 -0.927786708 0.605162382
-0.182957068 -6.010684490 -0.399157137
0.149514988 -0.762620747 0.500995994
-0.606585920 -3.944369078 0.122778714
-1.410146594 -1.657003880 0.288176596
0.465841800 -2.114635706 0.457494229
0.560047209 0.703338504 0.101847790
2.681601286 2.347250938 -1.235593796
-0.944267035 -0.419447213 0.401677370
-0.038301662 -1.874405622 -0.616445184
-0.649899006 -0.855285943 -0.078958213
-0.618249118 -0.687709153 -0.057575248
-0.701022267 -1.517281055 0.037162662
-1.187413216 0.081450172 0.659713209
-39.213787079 -44.000141144 -31.225078583
-0.973236263 -0.850054979 -0.080805361
-1.062664747 -0.819720387 -0.061731070
-0.971518815 -1.181114674 0.519370556
-1.323122382 -1.453757644 -0.053338960
0.460148156 -3.705192804 0.376541197
0.074230500 -1.096952558 0.085201442
0.420564860 -1.598784924 -0.018278768
-0.271582544 -1.619401813 -0.170563027
-0.320318282 -1.689842463 0.476950407
-1.485856295 -1.497104287 0.008645296
-0.232334524 -4.243841171 -0.067425795
-1.771185160 -1.657917261 0.314396232
-1.679411054 -0.853424013 -0.383404821
-1.270498633 -0.922735810 -0.203171313
-1.351620436 -1.521499395 0.487809658
-0.952990472 -1.261110425 0.524633467
-2.372277737 -1.488788486 0.329311252
1.221145630 -1.118144155 0.178075030
0.246453673 -1.550614595 0.048555523
0.212234005 -1.489592195 0.500489473
0.390485406 -1.377119184 0.103495292
0.001420012 -1.492741942 0.493016094
-0.361778736 -1.729417443 0.176809043
0.001308710 -1.662033319 0.472491145
1.223874807 2.326763630 0.198742300
2.296670675 3.277282000 -0.166337013
2.301373959 4.551910400 -0.464548469
-6.175611019 31.094686508 -0.560010076
-0.768155515 7.840902328 0.877104878
1.676222801 3.053306103 -0.734463632
4.929887295 5.993983269 1.731200218
1.726297379 3.158599854 -0.026047492
-0.480959356 -0.928194165 0.451734900
0.256007046 -1.699745417 0.336573720
0.251802593 -1.672961235 0.333592534
-0.316009015 -2.802707434 -0.268591374
-0.222522914 -1.651733994 -0.271471828
0.424389809 -1.413661480 0.079060443
-0.444690704 -1.404840827 0.469235718
-0.966858923 -1.181334853 0.522403955
-0.324729264 -2.293887854 -0.199975997
-1.510728717 -2.400038481 -0.226442501
-0.634304225 -0.542148471 -0.085053436
-1.130687594 0.595156550 0.602116823
-1.401608944 -0.490149230 0.429506719
-5.909523964 -0.106538564 0.464739144
0.096162952 -1.243554711 0.484132171
-0.375928640 -1.585212946 0.072817646
-0.452467769 -1.917481899 0.204379007
-1.695095897 -1.355587721 -0.134696230
-0.346325994 -2.689919949 -0.042210959
-5.277922630 -0.662090778 0.368749827
-4.920073986 -1.506207943 -0.247555897
-0.240635201 -2.651482821 0.136206284
2.146158457 -1.257975101 0.096399955
-0.855867028 -0.314847350 0.016337728
-0.953754127 -1.561112881 -0.024445774
-0.210324645 -0.862335682 0.450915337
-0.297086716 -1.381505132 0.004091802
-2.547669172 -0.783071876 0.001696297
-0.127303213 -0.859280467 0.468369454
-0.477860957 -0.781561673 -0.079705395
-1.233860970 -1.452076197 0.003657643
0.894049466 -1.475795627 -0.309306026
-0.233016491 -1.083667874 -0.204275727
0.432539463 -1.386547685 -0.217644319
-0.773271918 -1.307545662 -0.210789770
-0.362824589 -0.864160955 -0.059785046
-0.165533766 -1.178085566 -0.068181612
-0.227436140 -1.379154921 -0.178691432
0.417461336 -2.279972792 -0.264273435
-3.298614264 -39.316165924 -11.552196503
-0.530619681 -1.417268276 0.082777098
0.001935976 -1.497522354 0.497251362
-0.209907889 -1.668584585 -0.237195000
-0.259580344 -1.618014455 -0.240094662
0.276086599 -1.615621090 0.366475940
-0.155862868 -1.464904308 -0.203351572
-0.429839373 -0.752956390 -0.016914129
-161.386917114 -10.356951714 -13.558854103
-0.006337220 -0.897536695 0.479801714
-0.531988025 -0.745553493 -0.106478713
0.001122159 -0.913968325 0.509320736
-2.141126871 -1.751726270 -1.830109715
10.542916298 -1.326825380 0.852434397
-0.702920854 -1.523230195 0.038031101
6.142014980 -1.419956088 -0.125569329
-0.259764105 -1.618085265 -0.244669214
-0.752542853 -0.161003530 0.084341586
-0.319616497 -0.131221086 -0.357778758
-0.586427808 -0.850828946 -0.054654963
-0.597667098 -3.285484314 0.090840049
-0.604257643 -0.772690773 -0.059614263
-0.213467136 -0.879125178 0.444295794
0.182172671 -1.390622854 0.483578831
-1.429649949 -0.904815376 0.440604240
0.330356568 -1.386672258 0.286710054
-0.038084053 -1.947371125 -0.436862648
1.626456499 -20.318719864 -1.526375771
-1.272142410 1.740211010 0.350382775
-2.576007843 1.007374763 0.384894878
0.820591152 -1.725759864 -0.565785527
0.286168009 -1.643499374 0.494322598
-0.195910990 -2.259152651 0.490435779
-0.025794908 -1.655077934 0.509940028
-0.211615130 -2.183112860 -0.147810876
-2.323167801 -0.965331852 0.378909290
0.069071978 -1.088560224 -1.229104042
-0.275489330 -1.417735577 -0.169720799
-0.225605115 -1.450263023 -0.170478940
-0.432458669 -1.391130567 0.457860798
-0.155687451 -0.863018632 0.457094818
-0.157443658 -0.864499748 0.458659112
0.275791466 -1.305955887 0.077635959
0.493690938 -2.382820129 0.355539590
-0.173944920 -2.311024427 -0.028296832
0.162704647 -3.859987259 -0.378659546
0.376848996 -1.954222083 0.284272015
-0.641368806 -2.505787373 -3.672137499
0.414939702 -4.516189098 -0.494738609
-0.150843412 -4.018241405 -0.212401435
-0.264054328 -1.594543695 0.264494598
-1.380663872 -1.519382715 -1.156720519
-1.090659022 -0.802484035 -0.025701059
-1.230563521 -0.609748602 -0.340603411
-1.535150766 -1.423749685 0.075465746
-1.039642930 -1.017161965 -0.151740953
-1.713204384 0.173771366 -0.424426109
0.032687090 -2.608363628 -0.177022055
-0.244154245 -2.951895952 0.161886305
-1.369198561 -0.220253170 0.518769205
-4.549325943 0.616123974 0.373117775
-1.814646006 2.021553278 0.310067594
-0.209001601 -1.593424797 -0.130616173
-1.004511237 -1.269211650 0.665446818
-1.484504342 -0.924637914 0.519441187
-1.588615417 -1.556889176 0.135394931
-1.113669157 -0.759066641 -0.215457171
-1.028072357 -0.818662286 -0.167367324
-1.359888434 -1.138843536 0.494450301
-1.876021385 -1.463807464 0.157224089
-17.968282700 -33.408298492 -121.555603027
-0.442873120 -1.426163197 -0.242781222
0.358340085 -0.881262600 0.459952742
-0.448490530 -1.406048059 -0.171380118
-0.287469208 -1.787479639 -0.849888265
-0.138587430 -0.923057795 0.033483740
-0.123359784 -0.870228529 0.423489988
-0.181213513 -0.990609050 -0.043039847
-0.591667891 -0.848115206 -0.053809743
0.441968590 2.273167849 0.308857232
-0.340750605 2.710700750 0.147309467
2.042330980 1.549127579 1.268159389
0.852480471 7.444507599 0.819968939
-0.276280135 -1.515208244 0.496115327
-0.234153450 -1.554549098 0.072382137
-0.254194975 -1.589293599 0.072250664
0.225196704 -1.178545952 0.080393508
0.875483572 -1.091509938 0.008527062
0.490651727 -6.737270832 -12.217840195
-0.302000970 -2.934638739 -0.117941849
-2.493889332 -2.153012514 0.421910971
0.380576640 -4.028133869 -0.836890161
1.835854173 -1.715814114 -1.233286977
2.573801756 -1.457605004 0.107295401
0.007138411 -0.897856116 0.446919650
-0.893101215 -1.408489943 0.026125023
0.494163334 -0.820610046 -0.040986523
0.436066806 -1.310373068 -0.201863572
-0.609055340 -2.452949286 0.448410809
-0.061790094 -1.730479836 0.699915051
-0.507843256 -1.417518258 -0.043848008
1.178446651 -1.376907349 0.100516863
0.158753812 -1.569779396 0.007091553
-0.432879269 -3.155044317 0.534387052
0.337555498 -1.857982516 0.440144897
0.454208851 -0.321495086 0.913662255
1.637867928 1.986719251 -0.018093670
2.175686836 4.966347694 -0.147849634
1.773359656 1.969577551 -0.103293553
0.962439597 -1.574640393 -0.577499688
0.640476942 -1.506056428 -0.421381533
0.785809159 -1.348117352 0.074504964
1.346458793 -4.571722507 -2.954005957
-0.533832431 -1.427900076 -0.026995430
0.196489200 -1.103971958 0.520971000
0.196216136 -1.102833509 0.515970111
-1.390152216 -0.913452685 0.424246430
-1.942385197 -0.800139546 -0.182358682
-0.713075757 -0.249613300 -0.681974053
40.882087708 -4.691363811 6.299559116
34.140422821 -19.138441086 -25.655235291
-0.339719683 -1.893620968 0.379207999
0.139346004 -1.333550096 -0.146601558
0.526950836 -1.774978638 -0.249257609
0.823633015 -1.728283286 -0.570770800
0.831052125 -1.421776891 -0.272943377
-1.595101476 -1.470110297 0.094231874
-1.324588060 -1.508958578 0.475325912
0.424051791 -1.410605550 0.077564865
0.431802630 -1.397487164 0.498759359
0.359939605 -1.435185909 0.002707535
-0.243158713 -2.040742874 -0.128364861
-0.693912983 -1.009056807 0.061625417
-0.977334619 -0.725034893 0.203358620
8.891223907 2.284537077 6.161150455
1.587631822 3.647272348 1.254219532
0.494900048 -0.391813308 0.944672942
0.468229979 0.531612337 1.275560737
120.367050171 81.914085388 -22.159025192
-0.785581708 -6.400162220 -5.414709568
-2.694348574 -1.210206270 -0.755542338
-0.820985079 2.027462244 -0.600666583
-0.451950282 -1.411468148 -0.170603469
0.472635359 -1.414879084 -0.227855846
4.665099621 -1.571477294 -3.724122286
0.636088073 -1.464661479 0.076362915
-0.270550549 -1.394535422 0.059251614
0.607157707 -1.460276961 -0.184609294
1.403406858 -1.777725220 -0.936311722
-1.207500100 -0.917313516 0.459493399
0.167830959 -1.508545399 -0.191807359
1.595195055 -1.270555377 -1.208822012
19.345790863 -3.878580809 -15.927045822
-0.224908859 -1.608822107 0.352032751
-0.257154226 -1.594001651 0.157571524
-0.214258954 -1.606615424 -0.129391715
-0.655610383 -2.346840858 -0.510379910
-3.239683151 -8.304915428 -3.375883579
-1.080785513 -3.290493250 -2.475249767
2.383117676 3.294914722 -0.164313614
1.192728877 -1.386532664 0.086910635
1.049077749 -1.751724958 -0.694237888
0.268945545 -1.592291117 0.081527129
0.177271649 -1.732076049 -0.296196878
-1.298086643 -0.937184274 0.480342150
-0.059317172 -0.910209060 0.497246742
0.938803852 -1.180959105 0.561839998
0.058313441 -1.195295691 -0.738933742
-0.269304961 -1.777346969 -0.214317262
-0.168463796 -2.403062344 -0.095549397
-3.604706526 -2.999140263 -3.060228348
-0.380805820 -1.352470994 -0.226803750
1.003876090 -1.708557844 -0.494161040
1.899682879 1.919123530 0.100714833
4.694178104 4.646306515 1.307465434
2.800940514 5.442124367 1.218935728
-0.370305926 -1.869773269 0.361466527
-1.964398623 -0.931791246 0.472302198
-0.341565132 -1.457500935 -0.009677433
1.100852489 -1.697324276 -0.658810019
-0.204104081 -1.839393020 0.494599104
0.424925268 -1.795333862 0.175754175
-0.289577425 -1.630536079 0.274385512
-2.495810509 -1.258890152 0.026449500
0.210416764 -1.484475255 0.495555907
0.219676167 -1.292240262 0.568575263
-0.461635679 -3.202447653 -0.072459511
0.345129043 -1.626531720 0.162395835
-0.240680739 -1.546296597 0.366978645
-2.058277845 -0.947176337 0.461491615
-3.572633028 -1.620983362 0.262720495
-0.977428317 -1.634315968 -0.328413785
-1.016723275 -0.859297574 0.137579843
-0.466879666 -1.395165801 0.216950610
0.311404318 -1.361198902 -0.245524392
-0.618627965 -0.906181216 0.428691417
-0.014352266 -1.141045332 0.027514819
-0.420874566 -1.269524693 -0.305600822
1.514781475 -2.380465031 -0.984861434
0.339809924 -2.394724369 0.802583337
-1.879209995 1.302919269 0.354729652
-26.934659958 -60.151657104 -22.083297729
-0.120873518 -1.657908201 -0.279319495
-0.218652710 -1.606996775 -0.135742441
-0.398418397 -1.636949658 -0.255652040
-0.202651635 -1.742657900 -0.333252072
3.069583416 3.867333412 -0.014074571
2.127882004 3.685675383 -0.165390074
-4.384455681 8.483505249 0.880779266
1.910917759 5.601688385 0.006227479
-1.447374344 5.909223080 0.105762459
-5.101115227 9.079664230 4.077766418
-1.272170186 -1.444149733 0.015581442
4.485574245 -1.129723907 0.596948743
-1.505630732 -1.390169859 -0.084915631
-0.333104998 -2.589308500 -0.028491065
1.685493708 -1.343731046 0.016101418
-0.216639757 -1.498160720 0.495007455
0.305395454 -1.666511297 0.040691819
-1.193016410 0.070822634 0.653321385
-1.191414833 -0.370466083 -0.030812558
-0.410085112 0.652002990 0.550805390
-0.977216005 -1.372374535 -0.272222936
-0.270023644 -1.491806984 0.479519904
-0.630840480 0.197655261 -0.061272800
0.100016989 -3.271848679 -0.118525989
-0.168873027 -0.653383315 -0.092030711
-0.950957119 -0.685410559 0.785271943
-15.058136940 -52.004882812 77.202896118
-0.576699674 -0.478102356 0.505588651
-0.935997427 -0.530448198 0.066868432
-0.603661060 -0.498745978 0.051066421
-0.770141125 0.061442532 0.053426955
-0.440274030 0.076548524 0.571710646
-0.273636192 -1.506216645 0.490448445
-0.222255662 -0.979636192 -0.182703480
-0.564687967 -0.405683070 0.546700776
-0.574380696 1.032776356 -0.075243317
-1.648283124 0.624513209 -0.032380905
-0.859916568 -0.237355158 0.038723003
-2.670381784 -6.313428402 -3.146086216
-0.876133025 -1.224306703 0.520387650
-0.954942167 -0.195956632 0.791272700
-0.645188808 -0.529500961 -0.079090469
-0.882200956 -0.478589356 0.691516161
-0.884381950 -0.766271770 -0.125190824
1.309224129 3.373972416 -0.228227958
2.057819605 2.512196064 1.668948531
1.888471842 2.283769608 -0.593317747
5.968737125 -3.477308750 -5.868508339
6.277187824 -0.727742851 0.230406821
3.933597565 -2.520904303 -3.496337414
2.443008423 0.584662199 -0.029850401
7.015370369 1.612335324 0.723131835
14.084244728 -6.156119347 -0.796705782
3.253481388 0.956629515 1.239848256
-0.755322754 0.864829659 1.158252239
-1.112084389 -0.001740059 1.615320563
-3.059663773 -8.089783669 3.388378620
0.309468776 0.615149260 1.369778156
-0.576386154 -1.697542071 0.848975420
3.636691332 3.192394257 5.888422489
0.317213535 0.656467676 1.301183105
1.763904929 1.953757763 0.161401838
1.573563218 1.553656816 1.359237671
2.638247728 5.977773666 0.860082567
3.293463945 0.954166830 1.262642622
3.450070381 0.856099665 1.216106534
2.302248001 1.482013226 -0.355297267
-0.830470026 -0.358156294 0.068966113
-0.033644058 -1.989561796 -0.451449722
-0.395473838 0.108047731 0.588002264
-0.577215791 -0.028723959 -0.047564864
-0.638358772 -0.670547962 -0.068153530
-0.577902257 0.102740623 -0.054604966
-0.297318995 -0.273659408 -0.047122817
-0.744700074 -0.630097568 -0.092883073
-0.514910221 -0.076696180 -0.039193094
-1.348067999 -1.137755632 0.486448497
1.509954453 5.023718834 2.042053699
2.509139299 4.273820400 0.761200070
1.271389008 4.087861061 -0.193798915
2.462077618 5.239480972 -0.876323521
3.476019859 4.542992115 1.767672181
1.232500434 5.234764099 -0.304569006
-1.495016098 0.577563941 0.570991695
-1.755172849 -1.473462701 -0.107768476
0.395184517 -1.667019367 0.054522231
-0.728326619 -1.786510825 -0.670246780
0.321053952 -1.728157759 0.039397180
-0.217167616 -1.496449590 0.494435579
-0.259410769 -1.595345855 0.264280051
-0.839595437 -1.502753615 -0.063801162
-0.212696895 -1.493520617 0.492922813
-0.395880491 -2.813063383 0.449627876
-0.489740133 -0.928784549 0.513086796
-0.250775844 -1.400347233 0.003800244
0.021634718 -1.601194739 0.481288731
0.034327362 -1.282401919 -0.119305111
-0.196824729 -1.490340233 -0.113542952
-0.001218644 -1.243072033 0.037037842
-0.246506274 -1.062034607 -0.083340064
0.768025279 -1.593188763 0.081343502
0.038541030 -1.203572989 -0.058696792
0.169354931 -1.292095542 -0.081713781
-0.081371948 -1.468115926 -0.259537995
3.817131519 -0.442024738 1.455682755
-0.454934895 -1.909577608 0.203448519
-1.604017615 -1.469166756 0.108381890
-1.877244711 -1.475933433 -0.127079949
0.552480221 -1.811097264 -0.277224690
-0.406238586 -6.757839680 0.761535764
-0.652343035 -0.907081306 0.440615833
0.303453684 -1.368206382 0.014608230
-0.240586266 -1.375329018 -0.165396929
-0.578683197 -1.654417157 -0.486244708
0.282637745 -1.641437769 0.493132144
-0.212552860 -3.931523800 0.429566473
-4.164008141 -1.049878240 0.061621889
-2.632807493 0.703998089 0.341575354
-2.941165447 -1.510953665 0.432443887
-0.398653626 -2.543135881 -0.248576015
-0.298929214 -2.476247311 -0.095914587
0.286620349 -1.631399632 0.383366406
-0.373503208 -3.007618427 0.360701323
-0.341924250 -1.460046172 -0.014289372
-2.255449533 -1.492057681 0.459534585
-0.466842920 -1.428341985 -0.177665055
0.398660868 -1.979534030 0.021163523
-0.776739955 -1.524437189 0.487551063
0.431963682 -1.394027591 0.495600075
-0.207539111 -1.577776670 0.343074113
-5.029462337 -1.577994943 -0.016502677
0.123059891 -1.308285475 -0.077418990
1.681207776 -1.319224477 0.565121531
0.951560318 -1.314171672 0.108880021
0.321598738 -1.462816238 -0.108690873
-0.310775757 -1.463334322 0.055812940
4.976382732 5.764986038 0.311862469
1.767218351 2.275879383 -0.250274599
3.801061869 -0.590812624 -0.538017929
2.073308468 2.594332457 -0.040203974
-0.130849347 -0.859945297 0.460636616
0.315624326 1.290492058 -0.023980059
-0.680822909 -0.807817996 0.044293776
-0.616923094 -0.690842152 0.326795518
-0.708025455 -1.002839923 0.114430323
-1.013841987 -0.757582486 -0.025915856
0.325675815 -1.707394481 0.450822234
-3.896068573 0.702276409 0.278739631
-4.301569939 1.194475532 0.308642447
-12.973537445 11.750400543 -4.017997265
-14.611051559 -66.700485229 45.340435028
0.720919907 -2.710287571 0.250383556
1.110688210 -5.512266636 1.298078537
-0.807521164 -0.863776982 -0.037704386
-0.818910599 -1.655047894 -0.125674233
-1.830165029 -0.967241585 0.468559027
-0.813076317 -0.862548351 -0.040726162
-1.368685365 -0.496088266 0.063100085
-1.409987926 0.990745068 0.437554419
-0.980790854 -0.856791079 -0.081392847
-1.202811599 -1.495409250 0.080756426
0.319901794 -1.725076914 0.318360090
0.430255473 -1.416664124 0.076986894
0.011362981 -1.425171375 0.428166479
0.420020610 -1.474952698 0.092462003
-0.449140102 -1.863451958 0.614440143
-0.589055181 -0.932785034 0.495192707
-1.253702164 -1.563552499 0.089675762
-4.247466564 -1.304938674 -0.565581083
0.279973507 -1.359294057 0.070565239
-0.454837799 -1.404720426 0.208585873
0.428275317 -2.287533283 -0.850864291
-3.998453140 -1.106676340 0.061367586
0.220362544 -1.507128239 0.519281387
0.379580081 -1.649849772 0.500707269
0.423524350 -1.372135043 -0.203691587
0.372278869 -1.563547730 0.094420604
0.751680851 -1.504667044 -0.441906452
0.434460223 -1.390507460 -0.220418170
0.420010954 -2.179389715 0.537125468
-3.094750881 -1.216822624 -0.403509855
0.494514078 -1.718964934 -0.238689676
-0.047346193 -1.400887251 -0.133221507
0.447639972 -1.445691109 0.109044559
0.297841460 -1.662862897 0.239073455
-2.510498762 -6.158300877 2.741650105
15.266923904 2.274858475 0.822311997
6.392656803 0.532975912 2.732219934
2.187252998 -1.711830378 0.322783530
15.143579483 1.180633307 0.141404003
-0.446519852 -0.020833656 -0.139195532
-1.980699539 1.954081893 -2.314170837
-0.151092067 -0.377167940 -0.030180410
0.514281809 0.341084450 1.466942072
0.668485105 0.114823014 0.249208808
4.282080650 6.146954536 0.788011789
0.345907807 0.187038019 0.727054656
-0.835667133 -0.234539092 0.399930060
-0.278151482 -1.401484966 0.073140740
-0.316318482 -0.710066497 0.044851892
0.443799078 -3.636466026 0.368961692
-0.165766075 -1.502265692 0.254144102
0.054436475 -1.604537725 0.486014932
0.103449069 -1.275809526 0.550238609
-2.689918518 -0.924262404 0.394084603
-2.979821444 -1.610821843 0.595718503
0.540114284 -1.417471170 -0.273287952
0.418677956 -1.760412931 0.181487560
32.232936859 -4.237895489 4.927089214
2.674088240 -1.347395658 0.477642030
0.470656455 -1.720573545 0.101063602
2.117729425 -1.446612954 -0.025843402
-0.255360335 -1.406865835 0.003309760
0.263341665 -1.354796767 0.025943248
1.158456564 -1.116543889 0.245619506
0.381480843 -1.269271970 0.456069887
0.974859834 -2.903650045 0.022813827
-4.042934418 -3.193759441 -3.207315207
-4.477772236 -3.213922739 -3.628968239
2.370267868 -10.483604431 2.639685154
1.115106344 -1.364490867 0.109936893
0.338775754 -1.471082330 0.047406677
0.239844278 -1.515388608 0.195578128
-0.455870092 -0.722291231 -0.111964829
1.599442840 3.619157076 1.313653111
3.749010324 6.913124561 -0.007777900
-0.706582785 -1.624475121 -0.337478638
-0.941120446 1.610750914 0.009863753
-0.612454176 1.190702915 0.454904735
-0.381890267 0.115303345 0.587396562
-0.208824173 -0.852701545 0.460399061
-0.652405739 -0.754874408 -0.074155129
-0.435433030 -0.919153392 0.485534787
-2.963145733 2.026925802 0.298228562
-0.318754315 -0.204685375 -0.313783675
6.787485600 4.466022491 0.453785241
1.730309010 3.240087032 0.017995376
1.788655162 2.276808739 -0.496449798
3.031009912 3.435314417 1.824199319
0.801154852 0.300249994 0.280661076
7.632716656 3.518212318 -2.098738432
1.826908946 4.394949436 0.313039422
-1.742989182 0.464348644 0.608778536
-0.558611214 -0.450453252 -0.415729284
-0.523303449 -0.667896807 0.547229111
-1.676079988 1.597964764 0.366232514
-0.509666145 -1.263746023 0.496249080
-2.824083567 0.645805776 0.411636055
-0.634052992 -0.544597685 -0.074032582
-0.607573032 -0.868090689 -0.068815507
-0.872123122 -0.674281955 0.007321629
-2.914758444 -1.232550740 -0.879548371
-1.530286193 -0.734193921 0.484210759
-2.923853159 0.678844988 0.433415145
-1.956831694 -1.157208085 -0.403517842
-4.866867065 -1.491852403 -0.232196748
-0.629633546 -0.764936507 -0.152479365
-0.754722953 -0.899936676 -0.362811536
-0.520428419 -0.408329099 0.514171124
-0.291933000 -0.448536932 -0.190661505
-0.678268671 -0.805727661 -0.100821756
-2.725231647 0.212558702 0.049647480
-5.212076664 0.580350578 0.414933950
-0.970632851 -0.955995798 0.365001589
-1.499401927 -0.499603391 -1.740197301
-1.815032363 21.536266327 -21.655763626
-17.347974777 20.586339951 -10.696115494
-0.405785114 -0.124038853 -0.018868707
-0.662024617 -0.570881188 0.783148229
2.756216526 0.150677562 1.498335004
1.480543852 1.717550039 1.246773005
-0.969771802 -1.181017280 0.520415902
-1.421018124 1.808555841 0.315020710
-0.188025773 -4.302423000 -0.204313517
-3.255070925 -0.086860083 -0.012977319
-1.399993420 -0.195726514 0.531870961
-0.392359257 -0.850835264 -0.050989281
-0.677269399 0.702357650 0.446040392
7.158305168 5.254067421 0.802592814
5.303503990 0.799572527 2.891406536
1.057316780 3.238417625 -0.687079370
6.650416851 -0.744884014 1.158641458
-0.505550027 -1.111448288 0.480743885
-0.571858883 -1.340555787 0.008392896
-0.690486491 0.770367801 0.456514835
-0.881879687 -0.182871789 0.072962806
-0.837280452 -0.816683412 -0.006745419
-1.728122234 -0.738101125 -0.147946000
-1.451977253 0.704193354 0.441624075
-0.807020903 -0.783705413 -0.011232788
-2.321173906 -0.772895098 0.025255727
-1.992233992 -0.780187368 -0.188383400
0.572517872 1.993994474 -0.047905296
0.879074514 1.930503249 -0.148378909
0.231326699 2.819436550 -0.233517408
-0.682031095 -0.912314594 0.433960289
-1.693467379 -0.582777083 -0.078802042
0.659667730 1.662191510 0.518299580
0.914216101 1.854072928 0.866887927
-0.771822870 -0.740557790 0.016861696
-0.506151974 -1.426933646 0.069467917
-0.722568870 -1.709403634 -0.127598777
-0.124448508 -0.965839744 -0.049914677
-0.147135258 -0.870489240 -0.078544132
-0.703767419 -0.085665211 -0.035942096
-1.165001273 -1.539891243 -0.045535211
-0.340084702 -1.448904753 -0.007906521
-0.198030666 -0.992985547 -0.060397930
-1.107343435 0.572392106 0.584740698
-0.217173293 -1.500429034 0.497815102
-0.936438322 0.376673311 0.471692204
-0.390070319 0.597156346 0.533546984
-0.672100246 1.618726015 0.417129070
-0.861265421 -0.857895315 -0.072166748
-2.805093765 0.569427729 0.423616499
-1.810779214 -1.511893272 0.186840370
-1.901326537 1.216125607 -1.979665160
-0.231867388 -0.869350553 -0.039604656
-0.154287338 -0.912501216 0.026434382
-0.201222077 -0.862720191 0.451645225
-0.198591098 -0.922866404 -0.050304953
-0.580265760 -0.844701469 -0.055407807
-0.159673512 -0.907994449 0.023391142
-0.191426769 -0.996954978 -0.053803440
-0.207778752 -0.864053905 0.453629434
-24.288555145 -84.643013000 -70.625839233
7.825509548 5.567124844 -2.913402081
0.749470830 -2.368365765 -0.158799022
-0.475070596 -0.815361381 -0.082813963
-0.631421864 -0.763954699 -0.066583566
-0.376598626 -2.933018923 0.364357233
-0.411130577 -3.996931553 0.398361087
0.392913312 -1.596502900 0.099248052
0.435986549 -4.597319603 0.254026413
-0.129940167 -0.861697435 0.462186813
-0.517647505 -1.115252733 0.497720182
-0.570818901 -0.491700560 0.489859432
-0.842923760 -0.353845209 0.068962231
-0.923908234 -0.821294963 -0.058051184
-0.134262487 -1.269448280 0.379280716
-0.817552030 1.191367269 0.426734477
-0.528893769 -1.388864756 -0.028402664
-0.510754466 -0.788071156 -0.123952858
-0.433376402 -1.404265642 0.478997767
-0.834158659 0.132982478 0.012065115
-0.212369278 -1.583153605 0.194474503
-0.881426513 -0.925955176 0.485464424
-0.876576245 -0.378734499 -0.347966939
-0.789160550 -0.889871299 -0.038484164
-0.043919329 -1.715252876 -0.145930201
-0.927981079 -3.288384914 1.622596622
-0.414479405 0.330769211 1.364720106
0.167445451 0.464457333 0.953212380
6.010791302 -1.563113928 0.234661654
4.929828167 4.055785656 1.336262226
-0.999572039 -0.959919512 0.445112556
-2.570830107 1.253176689 -0.647768974
-0.567967415 -1.451164246 0.365651846
-0.922085941 -0.748020649 -0.139094293
-0.099536158 -0.793656766 -0.149237588
-0.749046206 0.022747686 0.055772286
-1.900915861 -0.660022616 -0.056865674
-0.780718207 -0.704472303 -0.066501833
-1.554493427 -1.845426083 0.325923532
-2.592635632 -1.534446239 0.383860052
-0.955002367 -1.373368740 -0.200668529
-0.654735327 -0.893176675 0.482850045
-1.430798531 0.690425158 0.429692090
-1.447815657 -1.482892156 0.008955006
-0.876481652 -1.175968170 0.516320348
-16.124469757 8.620566368 -12.828134537
0.397302836 -4.897635937 0.090070315
0.480949432 -3.209603310 0.393173873
-0.666102529 -0.789437830 0.039410621
-0.639769495 -0.924929678 -0.080067396
-0.796078444 -0.509756804 -0.055037186
-0.545673072 -0.352881610 0.555367887
-0.795601666 -0.696200788 -0.074148826
-0.596551895 -0.850648820 -0.060066521
-0.301447093 -0.392201096 -0.214557841
-0.782158256 -0.887172461 -0.400185883
-0.623299599 -0.901233613 0.458349943
-1.628868818 0.011146562 0.082565807
-0.758114457 1.073801160 0.043039326
-1.230055690 0.786111116 -0.001663342
-0.960175693 -0.778849900 0.503826499
-1.100209236 -1.657662511 -0.389181912
5.702611446 4.337027073 -0.091971099
6.824865341 -0.338953018 1.631283164
0.244598851 3.308904886 0.136533231
0.788961887 3.974782705 0.175225139
6.811136723 -0.289807677 -0.073251389
0.389015496 -2.923076868 0.480512291
-0.387946725 -3.895214081 0.363027126
-1.819806695 0.225931317 0.604380310
-0.814716935 1.008678198 -1.773578882
-1.546242833 2.797225714 -3.620866299
-2.992463589 -1.517032146 0.440429419
-1.433038473 -1.672744274 0.262769133
-0.808269322 -1.046719074 0.159656420
-0.942064345 -1.193235636 0.514410079
-1.176918387 -1.608112931 0.475933462
-1.161273479 -1.590598822 0.465136558
-2.062098026 -0.183394715 0.053240184
-1.110093236 -1.282585382 0.489373475
-4.246176243 0.906343400 0.059783183
-5.648235321 0.929139078 0.395253450
-1.089637518 -1.594406247 0.008319706
-0.369984627 -0.919676423 0.476433396
-2.279015541 1.102867484 0.377431899
-2.090043306 -0.537645340 0.030659998
-0.843785882 -0.371106684 0.059761547
-1.416428208 0.215042695 0.163285002
-1.689569592 -1.520993590 0.481116235
-0.766752362 -1.447392583 -0.050500225
-0.861329317 -0.859218717 -0.075953074
-0.982442617 -1.262067676 0.519653022
-1.319846034 -1.457547665 -0.013003465
-1.112091780 -1.660068035 0.271481961
0.413464189 0.099347770 0.578689337
-1.148117185 -0.995274127 0.331147373
-1.348714948 -0.941476524 0.451922119
-4.731440544 1.148511529 0.411345690
-1.327001452 0.339914829 -0.003633061
-0.769781053 5.086562157 -1.753401399
7.159147263 6.703084469 4.394189358
3.527228832 6.096053600 0.378322899
2.292577028 8.945353508 0.782569110
4.061294556 8.549937248 0.768477917
0.170540303 -1.100749016 0.497128904
-1.497322679 -1.496634364 0.009310656
-1.499919415 -1.496612430 -0.040263925
-1.185643792 -0.221909553 0.011705064
-1.192773581 1.166293740 0.256021410
-1.604365706 -0.094275154 0.495265841
-0.954231083 -0.932180643 0.476577222
-0.603088558 -1.708022475 -0.087045886
-1.515754461 -0.693689048 -0.188176483
-0.743348897 1.081984162 0.041447259
-0.729246914 0.834299862 0.125023633
-1.496850848 -1.499494433 0.008095723
-3.249509335 -5.267388821 -1.309363604
-1.720501065 -0.761426926 -0.147116408
-2.055119038 0.260732263 0.530726850
-2.264349699 -0.432959974 0.404033184
-1.150262475 -0.981052279 0.541282535
-1.060547113 -1.590708017 0.171382830
-0.938402355 -0.845648348 -0.066277713
-0.872862041 -0.212588549 0.075737804
-0.868016422 -0.853290915 -0.073548600
-2.758441448 1.138841271 0.403624743
-1.466763496 -0.878724754 0.485702425
-0.759990215 1.071599960 0.420755774
-2.936050177 -0.963740349 0.470903993
-0.798177958 -1.596707225 -0.096473984
-2.676317453 0.555916667 0.041358165
-1.782341480 -1.469295859 0.063158974
-1.390972495 -0.954675257 0.614172041
-3.574029922 -0.407684654 0.391594350
-1.619408369 -0.790368438 -0.127650321
-3.625962973 -1.603478312 -0.142353609
-0.798822284 -1.618445039 -0.060627606
-0.581839383 -0.638317287 0.495440483
-0.795689464 -0.978698015 0.521200657
-1.329755068 -0.925846517 0.508860946
-0.783163369 -0.876893282 -0.070810027
-1.688418627 -1.390299320 0.411728382
0.393868834 -2.826556683 -2.702737331
-11.283458710 -33.415775299 -27.958885193
2.471280098 4.263782024 1.415294766
36.548641205 15.162435532 45.593738556
1.757911086 3.816060543 1.420124531
-2.302352428 1.894834042 0.884518504
0.013298906 0.693057060 0.598250091
-0.002208061 -0.908646107 0.479504466
-1.249360561 -0.071783014 -0.913346529
-1.595406175 1.074306965 0.130945504
-0.471732855 -0.153632715 -0.115814313
-0.907423615 -0.004899176 -0.205028579
-0.882269681 -0.895206869 -0.040008213
-1.703960538 -1.448120356 -0.087832689
-0.791434824 -0.628305852 0.446389347
-0.565864980 -1.432051063 -0.024759721
-2.323430538 -1.443140864 0.454406023
-0.744132757 -0.647093475 -0.199862868
-0.995903611 1.162637234 0.450397015
-0.438150436 0.451232284 0.218789682
-0.526618481 -0.617787600 0.521094084
-0.806649923 -0.955338359 0.370278120
-0.712251902 -0.412297189 -0.079013936
-1.299333215 -0.222739786 0.040861033
-0.468510956 -0.702385962 0.019140994
1.124398828 6.083688259 0.047162551
5.337954521 3.165912151 1.230988503
2.430720091 3.217918158 1.824927807
2.177174330 7.891028404 0.499661386
1.556909084 3.624199390 1.228762388
1.534550428 3.897131443 -0.242980331
-1.141050339 -1.553386807 0.021835119
-2.019188643 -0.962071359 0.425990283
-1.194437742 0.017405637 -0.044550572
-0.835780263 -2.188590050 1.434703708
-2.684179068 1.086862683 0.395337731
-2.171634674 -0.166121483 0.065612234
-1.106775999 -0.690646827 -0.008881659
-0.806442142 -1.639558554 -0.070901588
-0.759970725 -1.566185832 0.002569276
-2.736749887 -1.181408882 -0.353965282
-1.944774151 -0.781099856 -0.280929655
-1.976623416 -0.632004023 -0.071251370
-1.007578492 -0.808635592 -0.218369871
-0.824291706 -1.676037908 -0.128132135
-0.640186131 -1.486438155 0.476588994
-1.119262457 0.110573120 0.006049619
-1.415260911 1.652473688 0.418345332
-1.721276641 1.026891828 -1.846650600
-6.337401867 1.255596042 0.400965422
-2.837492228 -0.967517316 0.464599550
-2.218661308 -1.447576284 -0.255325347
-0.861651063 -0.505838811 0.113440841
-0.870215595 -0.344816715 0.586600363
-4.030479431 -1.278088808 -0.571587920
0.653956115 2.437176228 -0.284873664
0.314975321 0.331701726 0.660271347
5.683279037 0.149367318 -0.588186324
5.260408401 -1.492494345 0.042676069
6.447407246 -1.111734033 0.174989894
-1.135047793 -1.517980337 0.010897215
-1.043608785 0.011040905 -0.078588061
-0.599670410 -1.657952309 -0.073843040
-1.060126662 -2.667920113 0.642634869
-0.873010218 -1.171434283 0.516240716
-2.281369209 1.166731954 0.236680880
-0.615410089 -0.902596056 0.450442374
-1.318269134 -1.503978610 0.473753303
-0.957182050 -2.258306026 0.488017201
-1.286908388 -0.459443420 0.013066991
-0.853936434 -1.256280065 0.519393504
-1.420465231 -0.942088664 0.461492270
-2.497832537 -0.820691645 -0.209734142
-3.679281235 0.872009397 0.162721038
0.520701885 2.237892866 1.293341279
0.314584643 0.290400773 0.304757476
1.012871981 0.367644370 -0.323119611
-0.701872945 -1.759237528 0.314568162
-0.947198451 -0.687672377 0.625722945
-1.210044622 -1.989090562 -0.253775448
-1.336898804 -1.311482430 0.498359650
-4.857078552 -0.970941186 -0.328916013
-1.113572121 -1.833297372 -0.410895199
-1.689231634 -1.519530535 0.478242099
-1.338289976 -1.310862422 0.503694236
-0.617335856 -1.860192657 -0.209664330
-2.107866049 -0.463226497 0.029125117
-2.953061819 -0.699169397 -0.019107940
-5.579514027 0.900916398 0.380522549
-3.990098476 -0.630813539 -3.092069626
-0.870529950 -0.257867157 -0.003420868
-1.714072824 -0.587146640 -0.067386776
-0.876879513 -1.731562734 -0.356710523
-0.967311561 -0.791236639 -0.013827301
-0.617462695 -0.905216455 0.447798967
-1.389724016 -0.752281249 -0.155716300
-1.029731870 -1.562408447 -0.318650812
-1.096266031 -1.689083099 -0.420175493
-0.520864487 -0.694342256 0.510162652
-0.788919568 1.486431956 -0.524449706
-5.537434578 -7.446737766 -4.784757614
-0.788821876 -1.473538041 -0.067775771
-1.048452854 -1.465017080 -0.033882439
-1.898489356 -0.751906037 -0.513230503
-1.100328684 -0.235522181 -0.035012916
-1.047567248 -0.320413291 -0.162798807
-0.943801701 -0.860755563 -0.073280483
-0.502647519 -1.419014812 0.065458894
-0.501647353 -1.418938637 0.064999118
-0.666823506 -1.481000304 0.040096451
-0.519343972 -1.276536345 0.512319386
-0.640198708 -0.818757415 -0.031168418
-1.220018625 -1.418946624 0.046977811
-0.709497273 -1.329929948 0.557255507
-2.547869444 -1.134219050 0.054498032
-2.578162909 -0.745452046 -0.019422140
-3.439444542 -0.414507329 0.393822879
-0.846782148 2.686302185 -0.150250688
-2.131995440 -0.677079797 -0.596288323
-1.249461174 -1.556164145 0.068582736
-3.469044209 0.288530558 0.394743294
-0.824499965 -0.734855294 0.077521652
-0.668128908 1.503036857 0.496013254
-1.082331061 -1.496821404 -0.066915140
-0.698813200 -0.664429009 -0.072187632
-0.575710356 0.196802422 -0.077605568
1.684752822 3.032992840 -0.456641555
5.731556892 3.239706993 0.869516492
1.931683302 3.023692369 -0.345385700
-0.984483957 -0.616947234 0.550031126
-1.205673933 0.120262764 0.674307823
-1.241274357 -0.044029646 -0.933243036
-0.779340804 -0.424052626 0.009812339
-1.066081285 -0.204053074 -0.031561472
-0.712872922 -1.330360293 0.557278395
-1.410970330 -1.443469644 -0.027081469
-2.757975817 0.420071214 0.052166641
-1.149951816 -0.756545484 -0.037154056
-0.401410848 -1.606176019 0.066947363
-0.461786300 -1.413417220 0.224520966
-0.873652101 -1.617222190 -0.391545445
-0.865907907 -0.946239889 0.679850638
-0.797086537 -0.786643565 -0.011846580
-0.838445663 -0.945743561 0.643480301
-1.771605492 1.175553560 -1.996876717
-1.639326930 -1.474446654 0.050101537
-1.925328374 -1.418742180 -0.166499466
-0.456140399 -1.389701128 0.212630957
-1.068019509 -1.486956716 -0.067358106
-1.394219398 -2.285764694 0.486734509
-0.626965284 -0.886249721 -0.051736057
-1.373050690 -2.260726929 0.478628039
-1.775386572 -1.449696183 0.153393552
-0.946699023 -1.403755903 -0.196314752
-0.570812523 -0.953658402 0.492092311
-0.949063778 -1.581167579 -0.033939514
2.152348042 -21.987112045 -10.828462601
-0.837469697 -1.891652703 -0.175046161
-0.268120944 -2.643262386 0.419698924
1.219321251 1.961295366 1.317297697
2.533172369 1.027037978 1.595615268
1.945465326 2.368398666 0.944517612
1.708873153 2.742662907 -0.613384962
0.808811724 7.597099781 0.827166677
0.828485608 2.176752329 1.025994658
-0.975650847 -1.259549975 0.518979251
-0.604152560 -1.891331911 -0.136069030
-0.607688069 -1.769656420 -0.172243312
-0.902730107 -2.063093185 1.741388321
-2.663631916 -4.695014477 0.132335022
-5.618626118 -8.840623856 -4.977831841
-0.931137323 -0.414966673 -0.000003403
-0.427390575 -1.587580204 0.138040707
-0.785727680 -0.858307779 -0.079204611
-2.389695406 0.299170434 0.064801142
-0.491587371 -1.254079103 0.481948048
-0.763971746 1.150102735 0.170140266
-1.089477420 -0.763367414 0.054685183
-1.178476214 0.031291354 0.631266057
-0.945102930 -0.859995544 -0.074391715
-0.521252751 -0.664293826 -0.147302151
-0.516180336 -0.682658255 0.526658714
-4.456723213 2.782025099 -0.234634593
-0.566104531 0.925766110 -1.501792431
-2.200995207 0.671006083 0.442428857
-1.727544069 6.775887489 -6.545744896
-0.367026120 -0.835674405 1.245168090
-8.732273102 -37.950729370 43.869449615
30.528266907 18.589410782 -2.535420895
8.152426720 3.071210861 0.961617589
0.714484334 0.412857383 0.088863634
-0.556846023 -0.931370497 0.489924103
0.258469403 0.517108023 0.524572432
1.228995323 0.588460982 0.441246390
-0.371142328 -0.863418877 -0.059547167
0.548796177 -0.561285973 -0.230514571
0.786953509 -0.435418874 -0.285563529
-0.436657459 -1.408490419 0.486322343
-0.464706659 -1.407250404 0.222377509
-0.498570919 -1.405896544 0.288096905
0.224380285 -1.492211461 0.044621646
-0.455856800 -1.422413111 0.228995949
-0.290467769 -1.405155301 0.489951551
-2.748662233 0.646483123 0.054790203
-1.314011574 -1.441769719 -0.049286053
-0.457178265 -1.423496485 -0.191378921
-0.282670856 -0.468488991 -0.183234528
-0.636452854 -0.540766478 -0.070053570
-0.966412783 -1.365567565 -0.269933879
-0.356435657 0.062179480 0.563364565
-0.813734829 -0.493139327 -0.069179378
-0.037124544 -1.725540400 -0.146191329
-0.010238063 -2.216763735 -0.287916064
-0.361838877 -0.842832804 -0.065267190
-2.224767923 1.255110264 0.373913497
-2.109730005 0.662340701 0.414711803
-3.584058523 -1.274469852 -1.035395265
-2.789814711 0.600626647 0.408261031
-0.139480829 -1.280459404 0.519366264
-0.014495337 -2.072590351 -0.093088053
-0.022540381 -2.021417618 -0.233641729
-1.386996031 -0.208745703 0.529748738
-1.333902121 -1.510724664 0.477233320
-1.382407665 1.519469023 0.400670677
-1.474336505 -0.212588206 0.460568905
0.739942551 2.731493711 0.962714851
-1.456024051 -1.038804054 -0.314679474
-1.010100007 -1.417935729 -0.051714208
-0.767544687 -1.587014675 -0.054276556
-0.819013655 -1.326910853 0.081373684
-1.078103423 0.127580866 -0.097450279
-0.603596509 -1.920044541 -0.221516192
-1.006067753 -0.962983310 0.546139896
-1.304829121 -2.316451073 0.502482116
-0.461870223 -1.407337070 0.163538769
-1.188068748 -0.646700680 -0.299949139
-0.639164269 -1.485605597 0.476008445
-0.756981790 -1.563086390 0.001690395
-1.026726365 -1.526467800 -0.023039285
-1.084355354 -0.693255544 -0.042772364
-1.334917307 -1.549392343 0.068940170
-1.060773969 -1.565252304 -0.030711195
-0.808384001 -1.638578176 -0.116304450
-0.778622746 -1.522906303 0.487332463
-1.332371473 -0.793132663 0.418358594
-0.902109027 -1.572108626 -0.044819705
-1.147075057 0.031870455 0.631210983
-0.975402594 -0.856731117 -0.079293810
-0.874203622 -0.824776113 -0.053613901
-1.373676300 -0.943514347 0.458314329
-22.601011276 0.809400558 -19.952302933
-0.804310918 -1.640586495 -0.121448584
-0.788990796 -0.852048159 -0.080652058
-0.820857823 -1.664622545 -0.127617389
-0.782603860 -1.638306379 0.078252636
-0.788745165 -0.856909633 -0.080166139
-0.505619466 -0.936511099 0.157314837
-0.764925838 -0.922826469 0.020720907
-0.662216246 -0.995139897 0.129350767
0.319491029 0.143645883 0.624849439
-0.605619788 -0.893882036 0.026454080
-1.440421343 -0.731478870 -0.173112437
-0.954235256 -0.927114248 0.483692199
-1.922583342 -1.885470986 0.342864245
-1.824538112 -1.804958820 0.308847994
-1.091054916 -1.596864700 0.008606446
-2.057510853 0.259265900 0.535073817
-1.054770470 -1.030046463 0.494188309
-1.735438704 -1.479273796 -0.287436336
-0.433823228 -0.953680634 -0.267740965
-2.173667431 -1.500488520 -0.247315526
-0.634368956 -0.318420380 0.432588965
-0.799555182 1.168611526 0.436078608
-0.849633813 -0.319390506 0.016105754
-1.889357686 -0.786544621 -0.279205292
-0.656846225 0.605653107 0.424546987
-1.066918969 -1.566600084 -0.031247480
-0.934663475 2.445335865 -1.626830697
-0.243715733 -2.992924929 -1.571003318
-3.649332762 0.333084762 0.409702927
-0.632228196 -0.888266921 -0.049665160
-1.903042793 0.805492878 0.299767822
2.092728615 1.723314762 -0.580298066
1.290814161 3.952293873 -2.310735464
7.040179729 -0.389458090 1.368669152
6.271083832 1.427915215 0.437020659
1.773415327 1.885769367 -0.057051577
1.504500747 2.118744612 -0.623842239
0.474695832 0.448666036 1.371282816
-0.396217018 -1.599269509 0.069982179
-0.639773726 -0.764457881 -0.068693087
-0.997079909 -1.590437055 0.246948332
-0.817022860 -0.707497299 0.012959791
-0.556711912 -0.929021418 0.493999869
-0.856622994 -0.320191413 0.011733765
-1.001344562 -0.158400774 0.072296761
-0.351245344 -0.866910040 0.568229318
-2.057555676 -1.082969427 0.427763253
-2.249637842 -1.494070530 -0.250116020
-0.634050071 -0.668902397 -0.068811938
-0.792492747 1.284324288 0.458130330
4.435242176 5.946694374 0.482865959
6.634769917 1.704870343 0.701688349
0.639939189 -0.481925458 0.041142806
0.235632822 -1.614026189 0.436319709
0.022824509 -1.399198413 0.207331225
2.150001287 -1.213560939 0.435517460
0.406349182 0.090391636 0.570069492
1.703297377 -1.090535879 -0.478436768
2.917351007 -1.463348150 -0.410277218
0.409166306 -0.633818924 -0.197843477
0.293025732 -1.630310178 -0.264371186
-0.665410101 1.103257060 1.289212704
4.862010479 4.160545826 0.935844779
3.383538008 5.154794693 0.976510763
2.929857969 4.801432610 0.852904916
-0.463979423 -1.399814367 0.161514252
-0.462176740 -1.412542939 0.164669648
1.305799484 -1.686830163 -0.730764329
6.194732189 -1.055742145 -1.584651709
0.676070809 -1.566745400 0.320417851
0.427641869 -0.334937304 1.456810236
2.231127262 2.931027412 -0.163762107
-0.573879182 -3.423485041 0.097309545
0.225938037 -1.115607738 0.099235512
5.060572624 2.827093601 1.279576540
6.237950802 -1.019497991 -0.626756012
0.452872217 -1.700814128 1.313410282
5.124591351 7.793540001 0.807110608
6.490153313 -0.225068748 0.508003056
5.982498646 -0.217974752 1.249524117
2.300594330 0.627013028 1.467978001
1.929925919 1.667868733 1.242778301
1.932129502 5.678978920 0.925750434
1.598685265 2.102706432 -0.341139466
3.943885088 0.432545990 1.164237738
1.575648189 4.664728165 -0.260863245
-6.944049358 19.918554306 -9.991351128
-1.769767165 4.677504539 -0.003519994
-1.196602583 4.034897327 -1.048360109
-0.861006916 8.912541389 -0.065247558
5.894655228 3.269508839 7.300468445
2.318511009 3.541401863 0.086251616
2.420587063 2.589225292 1.363233685
1.518099308 1.627220988 -0.423072785
2.562135935 2.804662228 -0.467009038
0.511448383 1.096607685 1.395527005
2.987441301 2.080386877 1.916327357
1.835144162 1.650647163 1.219018459
1.992015362 3.727716446 -3.688630581
0.074205711 5.427927971 -5.552965164
6.541396141 0.744612873 0.713151515
6.885060787 0.089406766 -0.540676355
0.928104937 4.275278091 0.674493432
7.124434471 2.708533525 6.902554989
8.878834724 3.882198811 -1.514472008
8.346647263 3.638445616 -2.442842484
3.271036863 5.092157364 0.887339234
5.664455414 4.206168652 1.222820520
-0.991024196 0.325602710 0.627763331
5.082609653 6.179471493 0.395573735
4.957726002 2.782330513 1.263965368
-0.524183273 -2.719279051 0.542495072
-0.129413113 -0.962037504 0.419851571
-0.100255832 -0.839792311 0.851809263
6.100988865 -1.386777759 -0.116931915
0.943776429 0.620193005 1.270059228
0.643462241 -2.837474346 -2.357167006
-0.475266457 -1.264959574 1.487661958
0.901371837 0.551973701 0.600680888
0.831254780 0.169622824 0.345945984
0.840123534 1.770781040 0.034941062
0.341736883 0.493506789 0.769459188
-0.723953068 -0.960909665 0.036969122
-0.721752405 -0.882216275 0.023270043
-0.492049068 -0.923898160 0.116179675
-0.726727366 -0.542390764 0.435671180
0.736351073 2.920866966 1.094274879
-0.381576031 -0.668699741 0.229783550
-0.614529371 -0.937578499 0.023356821
-0.560969174 -0.991713047 -0.070285663
-0.682768285 -0.918576539 0.030525988
-0.721010029 -0.867844045 0.349628419
-0.905909359 -0.651590466 -0.026589202
-0.940924823 -0.746057332 1.624915361
-1.299995422 6.838467121 -6.186589718
-0.191662624 -0.593389213 -0.182636246
0.455077469 5.231748104 -0.408922881
-0.699728370 -5.200074673 2.143440485
-0.814988852 -0.480672568 -0.085838251
-1.295139670 -0.742150664 0.366576940
-0.858301997 -0.806597292 -0.065188646
-0.767249703 -0.924411595 -0.001082729
-1.228861451 -0.171393514 0.329845607
-0.268192977 -0.437053800 -0.083154924
-0.500876665 -0.256576002 -0.095184661
-0.674626350 -0.824874520 -0.094893053
-0.755725324 -0.961991608 0.025535053
-0.374320537 -0.335459709 -0.054522675
-0.901028991 -0.054625377 0.078793436
1.412640929 0.671149075 0.486709595
-0.102531396 0.347953409 0.005167306
-0.085978143 -0.628528237 0.397895575
-0.947462678 -0.809568048 -0.003382910
-0.512731314 -0.921017528 0.484143853
-0.414109141 0.752150774 0.581048369
-2.512137413 1.292795420 0.417746097
-1.703900576 -0.172574833 0.578519881
0.086161010 -0.879722536 0.470146269
1.722285628 -1.090508461 -0.477447331
-0.510082543 -0.913097084 0.486001641
-0.296102732 -1.377275586 -0.103903137
-0.465542465 -1.393556952 0.162891656
-0.424811274 -1.406503797 0.325558871
-1.292494059 -0.760624945 1.625490427
-0.685426056 -0.917238533 -0.020883664
-0.783244848 -0.941864252 0.453631848
-4.666652203 8.313385010 -7.192722797
-0.835579932 -0.871312976 -0.030493980
-0.553576291 -0.495466590 -0.047545563
-0.646664798 -0.580850005 -0.056836974
-0.213898629 0.057977166 0.042953327
-0.801503599 -0.496633351 -0.087607853
-0.532933116 -0.875884354 0.013215924
-0.333674878 -0.632499099 -0.106772847
-0.443939835 -0.686972499 -0.166507453
-0.317696571 0.505876780 -0.243576974
-0.443094492 -0.806872308 -0.062936746
-0.281469554 -0.536298811 -0.073702209
-0.683382928 -0.714107692 0.734238207
-0.517504394 -0.845391452 -0.071442351
-0.077821523 -0.909284353 0.491320729
-0.635821164 -0.919329822 0.399380654
0.804934680 7.848685265 0.387259901
-0.670147300 2.971310377 -1.376857162
-0.864038408 8.212618828 -3.355519772
-0.241022155 0.093190908 0.315721661
0.352758586 -0.323031604 -0.022439199
-2.365787983 -0.413662553 0.012059944
-1.175224423 -1.409837961 -0.047326498
-1.727590680 0.574888825 0.212223127
-1.064490080 -0.891019166 0.335147887
-1.093505740 -0.969067335 0.463766605
-0.875586748 -0.916489244 -0.086477451
-0.840911806 0.205106318 0.886047602
-4.397109985 0.199333027 1.235865831
-3.343187571 2.362122536 0.587660909
-1.519092560 -0.816920578 -0.108615883
-1.566637158 -0.520818591 -0.073628440
-1.469836712 -0.568018019 -0.214824006
-0.416865349 -1.427888751 0.311670095
2.476243734 2.953415394 0.112966210
2.181193590 3.969655991 1.265948296
0.938187957 0.608905554 1.292078853
-0.092641979 -0.821697056 0.402020067
-0.029731790 0.685775816 0.433766335
0.715309501 -0.644020319 0.072925210
0.792814374 0.327968568 0.068150960
0.518047571 -0.747919500 -0.034836348
0.327433765 -0.667753279 -0.158907726
-0.374970883 -0.857892036 -0.061258595
-0.082013160 0.284091294 -0.107332379
0.158925802 1.027453780 0.127766848
-1.213384509 -1.934573770 0.360299915
-0.871781588 -1.221610069 -0.050722443
-1.804777265 0.762553573 0.573534429
-1.286719799 -1.612193823 0.123774767
-0.824017525 -1.659811974 -0.005018777
-0.797690690 -1.443270087 -0.147757530
-1.097027540 -0.799758613 -0.027792066
-0.771447659 -1.596290469 -0.066544436
-1.511071801 -0.618639231 -1.194448590
-1.115209460 -0.631248176 0.028343232
-0.787275076 -0.581460059 -0.061314702
-1.326867580 -1.538549662 0.073732249
-1.820124626 1.005997419 0.409542054
-1.237330317 -1.443356395 -0.059910741
-0.831380367 -1.701122761 -0.006925113
1.732444882 2.298340082 -0.246955052
0.659876466 0.102565818 0.244882748
-0.970515192 -0.780762792 -1.336512566
-1.884600997 -2.856378555 -1.580414176
0.641264021 0.138529852 0.243037105
0.646407902 0.137980238 0.233706847
0.353822887 0.152270347 0.739706695
