4.323054 -0.204387 1.861856
2.951133 8.232081 -2.075536
3.099908 -1.844329 1.908454
3.220088 -1.472592 2.211656
13.807644 -1.463753 -2.570915
3.298618 -2.473452 2.719138
2.240888 6.085065 -0.074807
2.263860 6.090561 -0.006704
2.323407 6.084232 -0.175677
1.881815 6.296911 -1.079215
2.020456 5.945163 -0.202066
2.185392 6.693114 -1.485434
2.608530 6.077725 -0.612182
1.671327 6.347654 -1.394873
-10.122336 18.913807 -21.238228
1.018498 6.236408 -1.741253
0.855101 6.272302 -2.469914
2.689743 6.864415 -1.326182
1.426894 6.648356 -1.823617
2.299298 5.724534 -0.569703
0.981410 6.302534 -2.416462
1.703157 6.394630 -1.407280
2.382741 6.793566 -1.321239
1.952346 6.669022 -1.524391
2.116115 5.958179 -0.839601
2.120139 6.626653 -1.301106
1.964522 5.640608 -0.027578
1.220322 6.128081 -1.615534
2.269026 6.080790 -0.098486
2.055046 5.606401 -0.626410
2.284349 6.091369 -0.033980
2.905596 6.118656 -0.691302
1.025054 6.368569 -1.677355
2.612432 6.100501 -0.706227
1.088055 6.281098 -1.623144
2.622693 6.162614 -0.762951
0.784225 6.329161 -1.970888
0.062645 -2.967996 -26.698984
-0.721922 -2.094106 -22.234363
0.212819 -4.378075 -27.254700
-2.254523 3.397755 -18.820168
0.095459 1.278452 -27.686103
-1.615926 2.608392 -21.643323
0.177518 0.391419 -27.902648
0.221050 -0.453880 -27.643469
-1.881036 3.587237 -21.038344
-2.025906 2.508224 -19.521337
-0.469337 -3.383335 -23.258501
-0.810325 -1.273895 -6.337503
-0.901155 -10.288713 -21.899607
-0.833346 -0.514049 -5.546444
-0.682086 -12.528828 -26.358260
13.115551 8.815700 -8.821691
24.557241 19.325823 -19.266617
14.394725 10.032530 -10.463361
15.543219 11.129048 -11.603894
12.979859 8.714850 -12.312705
14.747614 10.438299 -11.446106
17.849499 13.310680 -13.758041
12.140032 7.906232 -7.930416
14.723698 10.445136 -12.029730
13.356868 8.920179 -11.417979
18.061550 13.354723 -20.627374
20.911430 16.155379 -19.092369
15.050161 10.668917 -15.973268
12.096274 7.760989 -9.966076
16.798819 12.423932 -14.052486
10.979044 6.743801 -7.236809
10.293352 6.129541 -7.239059
11.598317 7.415389 -10.264124
11.120082 6.892990 -8.104456
11.243212 6.989434 -7.818856
11.451552 7.170573 -7.621889
7.226623 3.358477 -3.603122
7.791040 3.808703 -3.949829
19.650520 15.195456 -16.808053
9.542094 5.370733 -5.543489
10.013725 5.812512 -6.249552
7.915992 3.954727 -4.566452
9.758169 5.627468 -6.673402
8.151852 4.098996 -4.455348
8.232476 4.250996 -4.988739
8.376024 4.299931 -4.687287
10.684153 6.489339 -7.669444
9.152975 5.020898 -5.148830
10.047608 5.869474 -6.634796
10.426068 6.190100 -6.633416
7.544600 3.636812 -3.726706
8.667971 4.538990 -5.062645
18.232793 13.774410 -14.891138
2.218213 -0.081656 -1.299725
1.983999 -0.146872 -1.356523
1.237160 11.215264 -10.220212
1.023464 11.062281 -10.532561
3.512162 9.190303 -9.023453
2.476158 11.137867 -8.730331
1.549251 10.584522 -10.363073
3.448427 10.806952 -8.024258
2.690567 11.106656 -8.529021
3.123310 10.463899 -8.739434
3.054610 11.084584 -8.124559
2.281296 9.981122 -9.856962
0.088744 11.460339 -11.174789
3.626277 10.542191 -8.057198
0.724685 11.234281 -10.668700
1.825531 11.611236 -9.057538
0.412710 11.435861 -10.838956
1.385899 11.580140 -9.647231
-1.107912 12.435071 -11.802015
1.266223 11.962725 -9.376874
2.815958 10.888557 -8.672451
4.106190 9.278779 -8.437674
2.895097 9.636001 -9.472382
2.860415 10.475647 -8.936929
3.780065 9.195454 -8.867419
5.027766 10.294122 -6.593252
4.081129 10.167946 -7.923387
4.547419 10.413983 -6.970098
4.040506 9.113452 -8.643741
3.220253 11.466038 -7.317081
2.748473 10.142423 -9.324554
4.231647 10.771664 -6.907400
5.301937 9.247536 -7.290039
5.522190 8.928109 -7.298930
4.781703 10.347422 -6.846305
5.428522 2.306208 -5.671498
-1.590121 12.210405 -12.508386
4.389521 9.682217 -7.962525
5.639327 9.279994 -6.945192
-0.694734 11.908603 -11.724100
5.580782 2.864622 -6.167336
4.429937 8.750614 -8.442492
4.473257 10.124483 -7.475945
3.809082 11.096913 -7.047535
5.533618 2.705828 -6.033953
5.433682 3.892715 -6.974237
4.725618 10.531591 -6.630080
7.032467 5.131725 -6.909789
5.159938 3.775638 -6.922655
3.077488 10.750320 -8.515201
5.149274 2.786147 -6.044046
5.148225 4.545768 -7.427401
5.999778 8.674236 -6.983087
5.223086 8.171072 -7.949323
6.714805 6.642678 -7.123186
3.374492 11.247415 -7.403329
4.613400 10.735365 -6.374962
1.957330 2.895267 -2.077987
5.256479 4.259770 -7.221667
4.694278 9.749112 -7.572311
4.740784 8.440410 -8.295663
5.788085 8.985547 -6.986397
3.265348 11.055746 -7.908747
3.120064 2.349578 -4.449129
5.407532 7.651353 -7.937489
5.594147 8.258259 -7.610691
4.538597 11.051154 -5.790601
6.079000 5.294717 -7.374039
1.926042 2.846264 -2.317031
7.341986 4.575863 -6.722746
4.341534 11.466778 -2.414762
4.816280 10.606698 -6.397901
6.646762 7.174492 -7.061844
6.496907 5.516952 -7.236530
5.550868 4.700386 -7.384522
1.680830 11.861992 -8.973428
7.289936 4.994930 -6.795546
2.867918 2.344312 -3.952099
3.084767 2.573460 -5.072250
6.718931 7.466919 -6.926831
4.197355 3.160730 -6.434539
5.959560 3.985554 -6.934167
5.173584 2.354754 -5.625103
7.147480 5.444706 -6.912975
6.200662 8.730254 -6.779653
5.718066 7.775915 -7.662612
3.893534 2.271258 -4.916615
5.640276 4.090060 -7.044910
3.106182 2.428900 -4.685691
4.872061 10.855796 -5.661551
3.669183 2.294353 -4.804656
6.938461 6.840939 -6.943883
4.710279 10.856724 -5.906782
4.706208 2.068992 -5.089047
6.398283 3.790418 -6.717193
5.913381 4.201175 -7.046350
5.882033 2.931003 -6.236267
6.441894 6.055716 -7.311493
6.464198 6.807575 -7.240904
6.142663 2.875581 -6.214466
3.445142 2.552144 -5.244977
4.216475 2.811098 -5.972571
5.605489 2.537019 -5.901439
6.331662 7.124319 -7.281074
4.387969 9.175243 -8.323220
5.854628 4.839119 -7.352383
6.549690 9.567607 -5.086768
4.805468 2.929326 -6.189503
5.302550 10.552368 -5.467198
4.203160 2.105369 -4.819660
5.888375 2.769819 -6.125109
3.206479 2.471541 -4.900879
5.671139 4.507123 -7.249244
3.491917 11.409490 -7.046123
3.878170 2.389337 -5.136283
2.082052 2.720634 -2.518013
5.356192 2.599170 -5.906747
2.526976 2.449654 -3.652498
2.098882 2.774116 -2.240133
-1.732878 12.595593 -12.443188
3.882258 2.609388 -5.544252
5.433068 10.045065 -6.319435
3.373888 2.403583 -4.848746
6.945751 5.358209 -6.986332
5.494452 10.535546 -4.777085
6.157077 2.405604 -5.889122
2.221120 2.634727 -2.615888
6.041627 5.853574 -7.502626
7.666162 8.321660 -5.383783
5.811349 2.359557 -5.799538
5.562534 6.123036 -7.849737
7.474043 5.593897 -6.725123
6.162998 2.632137 -6.048662
2.870264 2.292108 -3.555961
5.522973 10.449261 -5.145416
7.762664 3.037850 -6.222208
7.565628 2.810237 -6.168474
8.003697 2.847024 -6.161455
3.526649 2.362991 -4.851110
3.883565 2.512572 -5.378044
6.863045 3.954152 -6.684101
5.674029 10.006517 -5.981689
4.796674 3.329136 -6.607412
6.480858 9.278122 -5.835667
5.714264 10.383000 -5.064846
7.576447 4.865948 -6.673833
7.859754 3.377250 -6.306083
5.754183 9.685446 -6.292868
8.219485 7.333712 -5.635430
8.036419 7.308940 -5.787018
8.311519 2.926138 -6.158676
5.925275 9.703414 -6.058272
8.552700 7.064788 -5.482194
2.552866 2.426121 -3.335513
3.673985 2.409242 -5.057540
7.022466 3.563421 -6.510081
7.011959 7.159157 -6.796338
7.660568 5.080745 -6.650916
6.551102 9.380868 -5.536882
6.576595 2.138163 -5.785001
5.653766 10.328688 -5.322490
6.765070 8.550927 -6.255192
5.979439 10.138031 -5.122904
7.157906 6.853349 -6.772892
6.549738 3.472199 -6.551243
4.393909 10.801719 -6.628441
3.530333 9.997178 -0.064131
4.468860 10.650310 -6.814693
8.090556 7.522874 -5.606691
6.512419 8.498790 -6.565388
7.262832 2.336966 -5.968842
10.774599 2.397129 -5.720710
6.965197 8.953699 -5.575931
7.459437 5.337139 -6.733859
7.436067 7.882707 -6.035785
4.725780 11.008757 -5.606477
7.470186 3.428114 -6.369383
7.872348 7.248044 -5.965680
7.884211 7.509616 -5.799941
10.153654 2.293468 -5.827257
7.906547 7.841611 -5.599176
6.779418 8.018276 -6.573580
7.547115 6.668648 -6.508338
8.643068 6.248511 -5.816113
8.930976 2.683309 -6.018321
3.791362 11.904254 -4.403617
6.682379 9.177824 -5.671316
7.695014 7.436587 -6.040509
7.707724 6.141341 -6.506705
7.015613 8.168579 -6.278738
7.688368 7.733417 -5.867989
7.761631 6.772223 -6.330052
8.020695 6.264511 -6.294543
6.724616 9.289007 -5.469673
7.459462 8.592419 -5.325060
8.735677 6.776479 -5.496209
3.681257 10.074052 -0.146369
8.796661 6.350369 -5.664601
0.183041 13.122049 -7.413793
6.630283 9.037358 -5.888950
9.566252 2.410096 -5.926538
6.345662 9.777581 -5.026277
8.629798 5.632126 -6.042446
6.905610 9.150041 -5.395126
9.128622 2.369640 -5.966239
7.707761 7.967289 -5.661944
7.566469 7.921870 -5.830759
5.778873 10.187448 -5.401384
10.708494 3.493483 -5.623442
8.917381 6.066515 -5.713843
9.591193 5.357438 -5.574981
9.259907 5.647292 -5.717348
9.834943 3.752356 -5.809817
8.457095 6.154599 -5.973039
9.486254 2.921348 -5.945810
8.695253 5.834943 -5.941085
4.617807 11.425639 -4.425672
4.020226 11.817945 -3.700782
8.238956 3.727709 -6.286556
8.862901 5.398294 -5.974763
5.638825 10.222376 -5.565839
11.043337 3.083370 -5.646079
8.467129 4.256151 -6.269625
8.844169 4.438359 -6.138482
8.298541 4.585161 -6.354999
8.983044 5.629175 -5.832606
8.117075 3.510890 -6.289027
9.517891 4.148946 -5.858208
9.396638 3.875550 -5.930835
8.696984 4.938644 -6.145576
7.911688 4.840123 -6.550528
10.163288 3.947028 -5.717905
7.731672 5.295784 -6.610841
9.989744 4.245453 -5.713282
9.111664 5.909748 -5.681306
9.791013 5.028634 -5.564106
9.675972 4.499174 -5.716725
4.170129 11.706136 -3.175722
4.446675 11.556000 -3.071027
4.268185 11.572479 -2.688377
7.671285 4.346311 -6.286351
7.834339 4.113848 -6.226803
6.964448 6.297237 -6.477374
7.119290 5.986897 -6.470903
4.311982 8.583385 -8.582919
4.088624 11.764652 -3.393595
4.562471 11.547438 -3.813579
4.516216 11.569347 -3.522795
4.431047 11.519531 -2.807933
3.519353 10.143859 -0.214074
11.562301 2.493443 -5.699664
8.318169 2.477441 -5.958025
3.649958 11.942267 -4.693411
1.607643 3.884534 -1.900545
1.663478 3.742021 -1.884599
1.712754 5.549796 -0.686332
1.867915 5.617179 -0.642097
1.903271 5.624019 -0.646677
2.190075 5.491288 -1.366370
1.862773 3.709796 -1.831183
1.985578 5.633904 -0.982273
2.678539 3.436038 -1.785344
1.842737 3.297849 -1.799810
1.700348 3.393300 -1.807243
1.988810 5.656006 -0.836645
1.957936 5.653141 -0.700927
1.672110 3.864526 -1.872641
1.793519 5.567320 -0.497699
1.935069 3.807799 -1.800949
1.725124 5.396871 -0.000684
1.531899 3.433541 -1.859623
1.670747 5.547313 -0.786985
1.903109 5.530370 -1.150116
1.787784 3.977090 -1.835790
2.743779 4.741762 -1.893131
2.739782 3.483889 -1.772636
1.288464 4.036813 -1.934161
1.830964 5.324811 -1.378337
1.765183 5.538972 -0.934044
1.651987 5.512382 -1.004969
3.063398 4.055276 -1.931579
1.662925 3.518621 -1.812812
1.927810 5.340474 -1.376932
2.362686 4.164757 -1.840383
1.951737 5.200102 -1.553970
2.313307 5.542965 -1.384760
1.725922 5.518268 -1.052155
1.627779 5.539401 -0.830349
2.132036 3.645871 -1.823970
2.074162 5.511380 -1.287810
1.689155 5.460508 -0.211746
1.837089 5.104190 -1.631167
1.862665 4.281937 -1.837945
2.590539 3.415463 -1.803014
2.792211 3.313493 -1.779487
2.768139 3.823305 -1.852254
1.721059 5.524034 -0.906518
1.877545 3.904362 -1.812109
1.805278 3.851940 -1.851933
1.944355 5.458956 -1.289249
1.071170 4.648448 -1.943970
2.546871 3.284098 -1.839895
2.161453 5.704615 -1.012011
1.543795 4.285310 -1.881673
1.420032 4.140671 -1.864695
1.794834 3.682426 -1.843222
2.384162 5.555757 -1.411124
2.341703 5.334807 -1.591743
1.460874 3.963895 -1.865064
1.445052 4.325121 -1.887213
2.029794 5.183843 -1.557432
2.317678 5.415346 -1.493166
1.831391 5.195488 -1.498183
1.920015 5.300685 -1.471979
3.523850 5.052359 -2.043416
2.325255 3.850722 -1.870869
3.438489 5.169654 -2.027237
1.784138 5.320071 -1.375448
3.168050 5.625742 -1.856838
2.060937 4.747501 -1.766276
1.126860 4.557194 -1.892573
1.726960 5.534836 -0.449633
2.163582 4.800272 -1.707468
1.240277 4.575426 -1.852657
2.834666 4.743655 -1.893673
2.914142 4.309906 -1.921893
1.716891 4.373280 -1.822350
1.950495 3.223806 -1.775950
1.583268 4.390677 -1.849841
2.050704 3.346426 -1.764804
2.281287 3.948459 -1.874036
2.490139 4.533246 -1.824882
1.687315 5.534089 -0.928007
2.090615 4.530004 -1.820865
2.151222 5.136577 -1.602135
2.062499 5.684839 -0.857599
2.362334 5.058694 -1.690711
1.936533 5.641489 -0.773688
2.289598 3.568795 -1.819991
1.811045 4.815555 -1.734221
1.748384 3.914001 -1.840058
2.333004 5.470190 -1.468269
3.026969 4.365986 -1.889025
3.557208 5.123449 -2.028175
1.607554 5.509695 -1.034581
1.652312 5.529419 -0.896783
3.113909 4.188103 -1.915165
2.982303 3.715173 -1.846436
1.602923 4.494064 -1.806422
2.128295 4.717110 -1.768029
1.337386 3.932315 -1.915775
2.588040 3.958844 -1.832013
1.730365 5.555264 -0.795681
1.727687 5.468466 -0.196018
2.096464 4.830163 -1.699599
2.216047 4.113611 -1.844479
2.473802 4.215306 -1.813306
3.382328 3.684278 -1.862041
2.005546 4.695199 -1.795532
3.428216 5.273122 -1.964859
2.377553 3.993639 -1.839929
1.594988 5.341478 -1.340891
2.050083 4.177113 -1.835843
2.263411 3.707506 -1.838578
3.009467 4.832813 -1.902137
3.033330 4.260389 -1.911394
2.570106 4.373801 -1.863303
2.921567 5.714226 -1.677621
1.736741 5.263086 -1.485894
2.525133 3.916811 -1.866778
1.915127 4.122508 -1.846557
1.733404 3.691090 -1.880123
1.620551 5.496573 -1.148049
1.765059 2.855796 -1.754886
2.318040 5.193280 -1.632168
2.918598 4.869413 -1.870955
2.305559 5.732746 -1.164103
1.590976 4.596648 -1.772271
1.965386 5.566264 -1.092788
3.147753 5.294199 -1.891668
2.750823 4.899239 -1.854254
2.621424 4.999577 -1.793059
1.581979 5.428685 -1.230844
2.095766 4.668492 -1.789511
2.942326 3.849074 -1.877680
1.973344 5.277232 -1.460349
2.575476 3.202318 -1.809126
3.258618 5.716214 -1.856975
1.806087 5.250138 -1.462738
3.550345 3.532077 -1.824382
2.545028 4.058121 -1.832886
2.846635 3.703753 -1.855891
2.255466 4.683599 -1.783504
3.018932 5.649420 -1.764921
2.292215 4.056649 -1.844156
2.462010 5.522396 -1.482623
2.441773 5.804937 -1.234970
3.286432 4.245114 -1.918596
3.220687 3.555954 -1.870675
2.017083 3.270323 -1.756241
1.869674 2.961500 -1.705610
2.560832 5.758993 -1.384716
1.460062 4.537153 -1.813530
1.985795 4.357935 -1.828441
2.321855 4.592729 -1.800053
3.292907 4.067849 -1.955271
1.776841 5.173176 -1.555509
2.452735 3.952896 -1.865590
2.388440 5.377765 -1.570320
2.425536 5.692855 -1.341484
3.470882 3.704971 -1.854785
3.358133 3.509656 -1.829976
2.130923 3.293914 -1.757557
2.732523 5.050717 -1.774396
2.678873 3.321652 -1.774013
3.637758 4.966155 -2.072752
2.829216 5.085145 -1.777637
3.299279 3.384697 -1.861230
1.282614 4.896049 -1.783133
2.708131 4.389893 -1.871984
3.164615 4.386779 -1.920204
2.242579 4.979575 -1.716835
3.820393 3.278001 -1.858738
3.084457 5.734668 -1.750129
2.504704 3.014309 -1.693170
1.890558 2.898294 -1.654337
1.676378 4.506790 -1.754183
1.975940 3.363087 -1.767593
2.028140 5.657573 -0.938088
3.449177 3.559630 -1.850683
3.209110 4.712162 -1.936238
2.929408 5.259758 -1.812158
1.422389 4.930126 -1.768206
2.497196 5.464266 -1.557883
3.115886 5.853948 -1.717265
2.794686 4.816364 -1.864678
3.020052 3.165159 -1.785431
3.169591 4.310184 -1.914814
2.375940 3.019787 -1.756429
2.062867 4.596832 -1.800892
1.571545 3.338346 -1.849184
3.334253 4.138705 -1.912683
3.018774 5.456107 -1.811673
1.511791 5.311984 -1.394481
3.502946 3.405691 -1.860437
2.828634 4.901821 -1.845185
1.966947 3.136646 -1.763443
1.654129 4.902756 -1.707764
1.739899 3.824629 -1.853910
2.019129 5.686073 -0.710122
4.068326 4.261244 -2.069101
1.667359 4.784029 -1.740565
2.850680 5.367190 -1.761597
2.849672 4.967966 -1.827337
1.762304 4.958314 -1.672873
3.444718 4.806107 -1.993710
2.512133 3.086218 -1.737466
4.343174 3.615676 -1.949320
2.153992 4.528368 -1.816427
4.182518 3.723821 -1.999460
3.169430 3.217067 -1.762394
1.969939 5.668835 -0.650988
5.139459 6.173260 -2.584797
2.162801 3.529676 -1.813338
2.505111 4.145747 -1.821260
3.503480 4.591378 -2.002427
1.251350 5.050082 -1.717163
3.778422 5.023564 -2.080477
2.479232 4.022722 -1.857436
3.624080 5.334190 -2.010253
2.625510 4.568863 -1.845446
3.311808 4.544654 -1.974548
2.515123 5.373726 -1.667591
3.948526 4.497900 -2.059008
2.616539 5.413173 -1.633521
1.334309 5.062259 -1.675503
4.057003 3.379994 -1.888590
3.522013 4.022350 -1.928204
4.563564 6.745148 -2.395805
4.281510 3.841677 -1.990290
3.081062 3.092644 -1.751511
3.233578 4.341402 -1.901613
2.138684 3.222969 -1.726449
3.815586 3.887889 -1.956545
3.315636 6.283419 -1.742654
2.405684 2.952193 -1.718208
3.047013 6.137444 -1.576413
3.911775 4.260388 -2.085341
4.454513 3.717402 -1.950934
3.786906 4.516569 -2.075459
3.698084 5.153662 -2.059978
5.176852 6.002153 -2.537420
3.961100 4.364876 -2.069312
2.102015 3.123778 -1.745511
4.193364 4.289104 -2.077865
3.752179 4.028932 -1.983769
3.631836 3.882529 -1.921511
4.795160 6.240547 -2.482230
3.642766 5.245536 -2.041094
3.325359 5.799155 -1.839773
4.466711 6.115893 -2.377055
3.198254 6.073141 -1.705796
3.938567 6.275340 -2.142695
3.847950 5.559862 -2.120315
4.774502 3.415703 -1.967039
4.430121 3.824720 -1.974268
3.638881 4.043638 0.066118
4.674182 6.309850 -2.428024
3.437376 5.730910 -1.922368
3.470754 6.209735 -1.858058
4.598004 6.467204 -2.422617
5.555405 3.934167 -2.115775
4.137576 5.626447 -2.222653
3.720897 5.686623 -2.053894
4.454794 6.234450 -2.359723
5.051244 5.723790 -2.513719
5.169856 3.948967 -2.144607
3.990166 5.792722 -2.163911
4.016823 3.248850 -1.812478
4.531302 4.167710 -2.115763
5.470698 3.659515 -2.145058
4.204337 3.627671 -1.963699
5.104647 5.632207 -2.509469
4.165313 6.174870 -2.260137
4.848369 4.032036 -2.130370
4.240539 6.297786 -2.281075
4.552666 6.931735 -2.457141
4.381811 6.478165 -2.332288
4.615776 5.395335 -2.340911
5.769215 3.625551 -2.015661
4.971628 3.473103 -1.966615
4.642235 5.632313 -2.404681
5.737480 4.399662 -2.308064
4.614768 4.072010 -2.074321
5.702332 4.262016 -2.191828
5.474989 5.077766 -2.399929
5.477033 5.286612 -2.476699
5.358446 3.816048 -2.139078
4.153393 6.373782 -2.232297
5.182823 5.414906 -2.455211
5.400660 4.480847 -2.371685
5.541303 4.059764 -2.139779
4.051187 4.552778 -2.050004
4.864891 4.233459 -2.184650
4.107937 4.628986 -2.074013
3.442956 4.107041 -0.395602
4.806268 5.311037 -2.382143
4.294976 4.776584 -2.188123
5.242357 4.613003 -2.332541
4.555874 4.837760 -2.244451
0.545845 2.587050 -1.642750
4.312452 3.712247 -1.971655
5.106467 4.728541 -2.347167
3.901806 5.088180 -2.103858
4.478472 5.019802 -2.263402
4.982027 3.379636 -1.916593
4.678432 5.533933 -2.398374
4.158628 4.963780 -2.145285
5.437341 4.626195 -2.302834
3.829760 5.225540 -2.111087
5.000097 4.616774 -2.320166
5.410747 4.749310 -2.334581
4.242951 4.367075 -2.079022
-1.529000 5.845621 -2.936155
5.177871 5.538765 -2.487181
2.597377 3.431024 -0.547183
5.294792 4.872619 -2.373741
-1.747273 5.715788 -2.979843
1.378735 2.934674 -1.796540
1.385008 2.866594 -1.695791
4.046945 4.877278 -2.209958
3.540909 4.064259 -0.200836
0.380409 2.582359 -1.651271
0.130391 5.805781 -2.247281
3.336278 3.920797 -0.278288
-1.715561 6.019625 -3.102059
4.155821 4.754076 -2.243269
1.218145 2.927898 -1.979087
2.048861 0.189284 -0.230830
3.616589 4.043521 -0.031691
3.563787 5.476825 -2.014091
3.509960 5.591003 -1.995881
3.227219 3.911559 -0.364687
1.716072 2.685528 -1.607702
5.472946 5.466267 -0.817953
3.447107 3.958451 -0.164269
3.392012 3.941202 -0.224841
3.187056 3.887831 -0.398332
4.496632 4.033886 -2.261222
3.592072 4.014278 0.016410
1.327003 3.104605 -1.864903
3.523220 3.985366 -0.068845
4.543316 3.913945 -2.244222
3.014614 3.765269 0.652116
1.700159 0.146477 -0.602330
2.633375 3.465750 -0.549585
2.966692 3.748693 0.653104
3.573766 4.193298 0.686490
3.066355 3.819165 0.662156
1.633042 5.326180 0.090927
1.736779 5.473627 -0.062928
1.972258 6.409527 -1.663800
1.635609 5.284165 0.133897
1.623091 5.293262 0.167409
1.930371 5.411226 -0.035475
1.642444 5.201923 0.108288
2.125096 5.578487 -0.423197
1.756817 5.632880 -0.250840
2.415919 6.313883 -1.084633
1.921511 5.361085 0.054180
1.577216 5.146166 0.196937
2.059089 5.909545 -0.300381
1.951033 5.359873 -0.211073
1.654819 5.180935 0.151421
1.904446 5.532274 -0.156537
2.224013 5.581741 -0.454864
1.601082 5.168184 -0.027699
2.019308 5.608297 -0.694921
2.031918 5.754491 -1.134389
2.236165 5.662568 -0.528442
2.825386 7.330751 -1.775873
2.322580 5.700559 -0.206377
2.052966 5.734691 -0.819338
2.155717 6.086967 -0.535202
1.909353 5.256404 -0.030459
2.167390 5.511332 -0.277919
2.089567 5.296078 -0.629730
2.425284 5.644104 -0.349320
1.830345 5.436044 0.104629
1.670544 4.966524 -0.321232
2.097019 5.626913 -0.154148
2.283076 5.606661 -0.214075
2.889826 6.152512 -0.913645
2.482194 5.726929 -0.384163
2.129870 5.510270 -0.247059
-0.134051 4.111300 -4.199740
1.691937 6.863113 -2.241957
2.214791 5.158979 -1.898652
2.332602 5.654272 -2.136166
2.206049 5.348506 -2.169248
0.155314 5.033694 -3.740537
0.168335 4.303508 -3.918807
2.272470 5.637363 -2.201416
1.735695 7.313013 -1.784228
2.499582 5.978384 -2.021272
1.529751 7.208944 -1.930141
2.456939 5.921807 -2.057020
2.482638 5.807217 -1.992061
2.627248 5.581530 -1.640406
2.380034 5.885887 -2.123222
1.284696 7.280669 -1.673575
1.866624 6.571193 -2.334243
2.318992 6.075229 -2.201542
1.953355 6.974829 -2.155486
2.201896 5.990521 -2.330593
1.808270 6.813840 -2.223855
2.311910 5.907184 -2.198650
0.866783 7.003244 -1.880941
2.627801 5.437874 -1.216957
-0.174826 5.222137 -3.651347
1.923032 6.884509 -2.186290
2.429876 6.069389 -2.131633
-0.301499 6.436193 -1.664377
1.388073 5.706783 -2.940756
1.421738 7.166762 -1.901402
-0.399578 5.997392 -2.474835
1.456145 7.227469 -1.855888
1.500280 5.215087 -2.900744
2.595476 6.913553 -1.845931
1.476202 5.643299 -2.890502
1.501522 7.387475 -1.634972
0.208499 4.761241 -3.812429
2.533536 5.318357 -0.539003
0.984556 6.971361 -2.069636
2.387488 5.764464 -2.096867
2.766382 5.452962 -0.822029
2.066295 5.276472 -2.305358
2.285929 5.806850 -2.223553
2.535319 5.411086 -1.314892
1.654790 5.719092 -2.758924
2.814004 5.881218 -1.483282
2.041690 7.614921 -1.572552
2.423885 5.665079 -1.985738
-0.485163 5.347097 -3.491923
-0.294863 6.088653 -2.520875
1.711949 5.418533 -2.735756
2.718588 5.637274 -1.476396
1.670136 7.398513 -1.750156
1.939620 6.732092 -2.233898
0.062438 3.966393 -3.862328
2.848124 6.032354 -1.533710
-0.132152 6.510745 -1.931126
-0.276330 5.449185 -3.441831
2.090828 7.526259 -1.604012
1.146522 6.639984 -2.427698
1.364910 7.312492 -1.674015
0.051592 5.127677 -3.727574
1.385260 7.264926 -1.809802
2.666774 7.090763 -1.762273
1.370196 5.558686 -2.968117
-0.239221 6.244292 -2.311919
1.854059 5.387795 -2.612691
2.541975 5.716845 -1.867622
2.529413 7.129559 -1.811263
-0.000072 5.874384 -3.035029
2.186056 7.486596 -1.645545
1.504150 5.412482 -2.912743
2.431841 7.545947 -1.620979
2.806803 6.057131 -1.624526
0.580474 6.889147 -1.922565
2.109793 6.772126 -2.179191
2.790395 6.795552 -1.714079
1.700120 5.635762 -2.723516
2.838629 5.434970 -1.134646
1.599546 5.656451 -2.798864
0.862386 6.536314 -2.562686
2.506113 6.298101 -2.016483
1.742268 5.330268 -2.693702
1.343610 6.396603 -2.549016
1.839635 7.606453 -1.488207
1.268695 5.555750 -3.030126
2.719098 6.962462 -1.755486
2.796460 6.959925 -1.713734
0.598005 6.958333 -1.854855
2.230610 6.644436 -2.131476
-0.227561 6.594602 -1.644315
-0.125483 6.045286 -2.710507
0.642467 4.812534 -3.543868
0.449369 4.714377 -3.706132
-0.213957 6.501025 -1.737994
-0.441424 5.150530 -3.629466
1.148709 6.942367 -2.106602
-0.021345 6.586030 -1.857661
1.499734 6.882528 -2.182195
1.984234 6.630314 -2.230557
-0.065403 6.487121 -2.053081
0.669404 6.987503 -1.796987
2.646815 6.355863 -1.890923
1.981038 6.801264 -2.190936
1.954993 7.291167 -1.893809
2.278828 7.481667 -1.608522
0.139599 4.904774 -3.800004
-0.095062 5.789651 -3.050901
0.742041 6.842671 -2.097444
2.858481 5.931897 -1.434776
1.633569 5.381203 -2.783593
2.706048 5.385741 -1.067871
0.908348 6.276409 -2.755030
1.646510 6.241715 -2.580262
1.824615 6.310621 -2.488081
0.217300 6.071498 -2.823938
-0.115823 6.403305 -2.096336
-0.004607 6.125620 -2.750721
1.376019 4.962968 -2.939474
0.669634 4.976772 -3.496431
3.141415 6.528824 -1.500927
3.098274 7.779458 -1.373959
2.659386 7.528828 -1.606744
0.141989 6.603131 -2.028579
-0.119585 5.886586 -2.972131
0.017678 6.567899 -1.994745
1.239610 6.273212 -2.646533
3.309755 7.869922 -1.585845
1.263091 6.781670 -2.257602
1.741137 6.763993 -2.247270
0.129994 6.677265 -1.929522
0.429726 5.299753 -3.528533
0.759397 6.996076 -1.846170
1.912689 6.147789 -2.517261
2.959411 6.041910 -1.351281
2.604738 6.619521 -1.926254
1.797221 6.905524 -2.201925
1.596625 7.615350 -1.450870
1.746023 6.082756 -2.612182
1.031588 6.297699 -2.715300
0.846088 6.395309 -2.676001
2.416837 6.561399 -2.076502
2.887981 6.824456 -1.658897
-0.409849 6.110982 -2.373028
2.390688 5.277803 -0.221969
1.136558 7.293332 -1.641530
1.372650 5.351787 -3.014350
0.498582 5.211315 -3.524519
-0.017452 6.440347 -2.178126
2.877510 5.908068 -1.328396
2.277185 7.598580 -1.560546
-0.058780 5.988839 -2.909471
0.229238 5.956593 -2.961414
2.760125 7.349911 -1.607819
0.790430 4.985730 -3.414154
2.889436 6.012828 -1.427766
0.915197 7.271947 -1.552769
3.261104 7.441305 -1.590993
0.935245 7.180625 -1.665784
3.073916 6.538297 -1.547415
2.941148 5.938194 -1.273062
0.437754 6.924296 -1.739932
3.471326 8.873384 -1.717876
0.156145 6.538231 -2.127083
1.645800 7.306636 -1.775402
3.023766 6.675291 -1.503344
1.037681 6.488514 -2.534243
2.288994 7.170554 -1.850724
2.636069 7.819581 -1.277893
0.610168 6.828834 -2.023888
2.041721 6.962304 -2.116459
2.193749 7.675206 -1.463375
0.324279 6.108714 -2.783938
2.125618 7.348150 -1.821406
2.066654 7.145691 -1.954641
1.619145 7.536335 -1.512419
2.433072 7.637120 -1.564239
0.807418 6.909003 -2.005361
3.077304 8.193284 -1.431378
3.030490 5.653664 -1.245339
0.953794 6.178772 -2.798346
1.707151 7.682650 -1.437170
1.218222 6.386840 -2.619648
1.264163 6.532258 -2.449892
1.384618 7.047747 -2.042887
0.620432 5.330493 -3.399111
2.898386 6.127527 -1.506534
2.883422 7.385898 -1.525205
3.232828 8.693852 -1.385541
0.995489 5.722975 -3.073699
0.869259 5.982944 -2.943128
0.390174 5.924122 -2.963247
0.627834 6.508724 -2.434570
-0.299422 6.516569 -1.613222
3.139636 5.833827 -1.519907
0.954320 6.459443 -2.570950
2.889011 7.824577 -1.304871
1.164408 4.803455 -3.127378
2.984549 6.230085 -1.461739
2.256959 7.917294 -1.297979
0.387624 5.063035 -3.635606
2.338129 7.687103 -1.531764
0.715799 5.662710 -3.214608
2.799242 7.539119 -1.505040
0.163399 5.832070 -3.046342
3.124748 7.963070 -1.365860
2.963987 7.744156 -1.332434
2.504784 7.870344 -1.304083
3.355843 7.730178 -1.660164
2.401468 5.351640 -0.262913
0.180483 6.142831 -2.759358
2.938628 6.220668 -1.517422
0.999754 6.368839 -2.648070
1.584619 7.432089 -1.619500
2.757433 7.055516 -1.724884
0.270165 6.236092 -2.704340
1.053973 6.601099 -2.475026
3.120736 6.748719 -1.460812
0.066797 6.540823 -2.104453
0.814535 7.059712 -1.770850
0.387124 6.535137 -2.302018
0.638071 5.844719 -3.088960
2.804533 7.873643 -1.259814
0.640844 6.798100 -2.120536
2.749223 5.440553 -0.872725
0.364496 6.977802 -1.640437
1.554551 7.279232 -1.788124
0.526370 6.613499 -2.281334
0.289683 6.844935 -1.682241
1.129138 6.390867 -2.600339
1.584041 7.363840 -1.747908
1.028211 7.368859 -1.576444
3.550817 8.793258 -1.800699
2.276225 7.814159 -1.341270
0.404803 6.451137 -2.448950
1.467372 7.304641 -1.789191
2.129547 7.659789 -1.526113
0.268745 6.895169 -1.608227
2.916946 7.686313 -1.405299
3.436848 7.481092 -1.831298
2.798691 7.667708 -1.342684
2.354885 7.947757 -1.272194
3.318988 6.497666 -1.722399
-0.720690 6.149586 -1.729627
-0.526726 6.323791 -1.553381
-0.690358 6.080839 -1.907721
-0.756995 5.936643 -2.032923
-0.150639 6.421339 0.326099
0.668950 5.577702 1.080140
-0.074080 6.514082 0.353083
-0.687792 5.997978 -2.083303
2.515431 5.379084 -1.106089
1.070680 5.893887 1.166183
1.945162 4.493256 -0.189777
1.935579 4.464011 -0.227170
2.265549 4.443771 -0.611546
3.433659 4.344117 -1.045717
1.595417 4.528192 0.037125
1.877155 4.485967 -0.187087
3.699218 4.114929 -1.406134
1.731576 4.378289 -0.164073
3.836962 4.115026 -1.477877
1.563614 4.656188 0.164903
1.648512 4.621554 0.110579
3.994961 3.817913 -1.867718
5.771549 4.280646 -2.300828
1.625037 4.650103 0.137899
1.036756 5.921380 1.162087
1.035106 5.944231 1.101885
1.997090 4.179820 -0.514791
7.606789 3.740055 -4.000522
1.591684 4.672327 0.174769
1.980495 4.346611 -0.338529
1.619108 4.620590 0.110812
1.089573 5.872655 1.311733
2.228159 6.671629 -0.227208
2.179483 6.498938 -0.170525
10.791986 3.127885 -6.175533
4.215317 3.748245 -1.964428
1.741618 10.720641 0.467469
1.506772 9.182529 0.543515
0.953069 6.092771 1.403919
1.770072 6.877022 0.657488
3.736790 3.490578 -2.105461
0.920095 6.198102 1.624388
1.010516 5.969920 1.152800
1.091225 5.850243 1.176498
1.682185 7.462330 2.610913
0.324034 6.823843 1.661791
0.174217 6.886331 1.627310
1.174668 4.550887 -1.369446
1.611726 6.062430 -0.430156
0.965630 5.457905 0.011144
0.767556 3.257794 -3.332167
0.754784 4.586251 -1.612268
0.893474 5.340374 -0.309485
1.174112 4.244931 -1.758328
1.016197 4.570029 -1.368905
1.066737 3.767485 -2.393081
1.516063 6.005402 -0.484585
1.171731 6.121078 -0.685356
1.198403 4.441182 -1.482551
1.761481 6.230165 -0.365743
0.982588 4.732718 -1.176170
1.123164 3.347609 -2.926131
1.056042 5.333963 -0.048706
1.787970 6.188184 -0.383523
1.102069 4.915965 -0.855248
1.002904 5.335034 -0.201422
1.391669 5.754940 -0.380307
1.511621 6.252198 -0.526411
0.922127 5.166208 -0.656070
1.817577 6.145740 -0.370693
0.595435 5.822163 -0.516267
1.071314 5.051616 -0.722504
0.717159 5.686532 -0.408468
-2.496922 8.420040 -5.986794
0.939162 5.096451 -0.714818
1.581304 6.087226 -0.392827
1.294841 6.328646 -0.669149
0.829576 5.061755 -0.811354
1.387849 6.258697 -0.619277
1.437937 6.223130 -0.560614
0.248258 6.264892 -1.591565
1.093150 5.018202 -0.732322
-0.161857 6.708497 -2.207857
1.171532 6.348995 -0.735723
1.157263 4.920697 -0.782994
1.101630 6.210522 -0.773534
1.046705 5.277099 -0.329694
0.934958 6.207905 -0.902084
0.704416 5.140781 -0.999245
1.540277 6.104190 -0.435369
1.292099 5.806628 -0.407224
1.127627 5.256007 -0.226377
1.225222 4.957957 -0.702597
1.457712 6.149789 -0.547888
1.478985 5.998549 -0.505038
1.035949 5.520905 -0.195190
-0.026137 -15.685226 -29.989111
1.680324 6.334987 -0.413469
1.061052 5.248670 -0.334710
1.077851 5.299422 -0.191334
0.807143 5.818316 -0.710745
-2.651296 8.593742 -6.746420
1.221583 5.796336 -0.454023
1.103239 6.175297 -0.845913
1.448132 5.823774 -0.398215
1.182327 5.780602 -0.448344
1.117096 5.285330 -0.199099
1.532314 6.110935 -0.508786
0.856813 4.513528 -1.475888
1.192823 5.288008 -0.123561
0.961229 6.296924 -0.968614
1.219638 5.363700 0.124115
1.855781 6.180524 -0.328511
1.836957 6.278714 -0.324422
1.009946 6.020333 -0.741297
1.226710 5.007551 -0.672553
1.554181 6.353054 -0.403356
0.499062 6.230347 -1.297590
1.568609 6.304123 -0.429865
1.154384 5.245001 -0.230898
1.553920 6.265000 -0.511179
1.204228 5.088887 -0.569361
1.128597 5.310356 -0.154954
0.599499 5.520266 -0.749450
1.196669 5.260685 -0.171800
0.074598 6.846151 1.740889
1.282287 5.394313 -0.029308
0.861878 3.099431 -3.301061
0.825245 5.583432 -0.149525
0.632608 6.492563 -1.272936
2.045176 6.326607 -0.229383
1.180060 5.312492 -0.123559
1.233944 5.308049 -0.007542
1.150814 6.382976 -0.684881
1.114720 5.816706 -0.567435
1.256848 5.119516 -0.447260
1.246636 5.276302 -0.031949
1.245365 6.314334 -0.562182
1.130093 5.819190 -0.496297
1.250149 5.249301 -0.094907
1.222314 5.412865 -0.009999
1.160770 5.040749 -0.646639
1.810791 6.212799 -0.357847
1.216377 5.520652 -0.163712
0.427767 6.532865 -1.456787
0.657990 6.441227 -1.047016
1.796105 6.236433 -0.318767
1.882283 6.324992 -0.245415
1.608655 6.328582 -0.347643
1.859428 6.383887 -0.232136
1.255732 5.347626 0.021601
0.192433 6.880436 1.692741
1.950760 6.337273 -0.226758
-0.455059 6.543721 1.378985
-0.849707 6.522797 2.700728
1.569513 6.743154 0.662998
0.616879 6.335576 -0.967784
1.905372 6.381757 -0.203058
0.880723 5.348543 0.038764
4.250174 3.871172 -1.908137
-0.761523 6.605202 2.720076
0.119406 6.859677 1.649258
1.243874 5.185372 0.419980
0.897252 5.422840 0.048596
1.500838 6.722466 0.660734
1.777613 7.332474 2.484300
0.425004 5.946070 0.475127
0.282168 6.579036 1.355930
0.271833 6.657448 1.384811
-0.151942 6.920181 2.033757
-0.417481 6.622556 2.698020
0.995672 5.349849 0.143971
0.477978 5.987470 0.490991
-0.388442 6.865696 1.737560
-0.297964 6.928004 1.797220
1.734651 7.419990 2.695024
0.084736 6.903061 1.988949
-0.361676 6.573580 1.374838
0.448065 6.815065 1.674679
0.533216 5.890027 1.177331
0.498176 5.867471 1.164968
1.216011 5.658430 1.001437
1.038955 5.759656 1.068259
1.443259 5.031648 0.463953
1.437686 5.025451 0.453609
1.444836 5.018277 0.487792
1.369428 5.080513 0.353208
0.863023 5.950504 1.139298
1.137407 5.688553 1.010329
1.365733 5.015578 0.347039
1.383397 5.056819 0.369787
1.454546 5.433974 0.313413
1.372434 5.069628 0.357242
1.328256 5.087180 0.338812
1.398448 5.027142 0.404822
1.249087 5.184862 0.313933
1.262851 5.193308 0.302053
1.174877 5.303864 0.297047
1.197596 5.310246 0.295830
1.509838 5.417518 0.321865
1.240977 5.219931 0.289011
1.231735 5.290251 0.298471
1.313767 5.109689 0.315917
1.179875 5.322035 0.306757
1.283275 5.102261 0.286438
1.578043 5.507377 0.319371
1.247216 5.274414 0.290902
1.586160 5.484709 0.313272
1.249411 5.298469 0.312420
1.461636 5.403834 0.316548
1.307245 5.174731 0.310507
1.603132 5.474744 0.307769
1.421761 5.428007 0.321701
1.488526 5.445245 0.325184
1.603683 5.516708 0.327173
1.327671 5.159288 0.314260
1.314299 5.151424 0.304036
1.346512 5.335489 0.316825
1.275735 5.290581 0.308382
1.485129 5.416065 0.316107
1.629892 5.463566 0.325311
1.396506 5.021294 0.436520
1.372258 5.379824 0.314503
1.691879 5.351928 0.286505
1.211128 5.216170 0.269136
1.610344 5.482444 0.338670
1.391842 5.416179 0.324415
1.538746 5.502017 0.326662
1.275189 5.264439 0.300530
1.160257 5.696737 1.009959
1.681047 5.370522 0.309895
1.335829 5.154234 0.295779
1.330026 5.367818 0.296333
1.685596 5.362721 0.457069
1.271320 5.282052 0.295131
1.281266 5.310174 0.313231
1.321742 5.183715 0.321721
1.634004 5.372801 0.297669
1.295727 5.271006 0.308876
1.506856 5.484403 0.345665
1.622797 5.465693 0.348875
1.496682 5.491066 0.346180
1.731018 5.470687 0.298755
1.655811 5.382862 0.317570
1.635856 5.382180 0.306679
0.970582 5.727530 1.077461
1.351868 5.367156 0.312344
1.701030 5.453667 0.294220
1.598447 5.383987 0.308938
1.700002 5.349755 0.307226
1.677132 5.367510 0.295201
1.576968 5.413524 0.310949
0.115047 5.946348 1.244192
1.715458 5.501440 0.303404
1.306149 5.361714 0.314573
1.689903 5.478465 0.305719
1.836938 5.425808 0.212644
1.615168 5.565344 0.351955
1.822996 5.369031 0.207019
1.755027 5.554288 0.331268
1.299289 5.374277 0.331492
1.695480 5.573752 0.330263
1.380479 5.443648 0.319873
1.791931 5.487217 0.271962
1.731412 5.567812 0.343176
0.077187 6.037963 1.257238
1.403389 5.441780 0.335006
1.280110 5.364657 0.316642
1.852962 5.381365 0.209979
1.758154 5.359666 0.278535
1.627582 5.562561 0.347804
1.663815 5.568954 0.339640
0.962741 5.812737 1.099665
1.754918 5.567257 0.404993
1.739050 5.600237 0.365018
0.629914 5.731129 1.003774
1.876225 5.521513 0.185528
1.748691 5.584910 0.388412
1.732578 5.617651 0.374310
1.516215 5.720223 0.682706
1.840667 5.512413 0.219315
0.876533 5.884385 1.124785
1.739773 5.539311 0.315436
1.228606 5.615195 0.925904
0.848112 5.154481 0.220788
1.725365 5.566786 0.304579
1.842530 5.496950 0.252782
1.093341 5.257298 0.277563
0.273814 5.886162 1.218080
0.891597 5.175121 0.238419
1.178990 5.720652 1.016071
1.122494 5.235172 0.270792
1.098043 5.305675 0.275441
1.885062 5.420312 0.177702
1.489997 5.736247 0.680677
-0.424132 6.481980 1.425735
0.355371 5.947331 1.200539
0.900049 5.195989 0.254617
0.156560 6.020579 1.250426
1.131278 5.209954 0.281262
0.560912 5.846247 0.499585
0.913289 5.188583 0.242782
0.187133 5.846257 1.240131
0.673989 5.804798 1.137661
0.655977 5.841766 1.124004
0.419937 5.868598 1.189665
0.773229 5.756720 1.103396
0.898006 5.719521 1.074918
0.698279 5.843595 1.117554
1.286446 5.502818 0.940853
1.153448 5.637117 1.008295
1.231081 5.571861 1.016321
0.802605 5.803177 1.094065
1.087804 5.585523 1.052846
0.992966 5.636423 1.099462
0.839767 5.727860 1.084700
0.756710 5.821871 1.103659
1.158761 5.201313 0.281363
1.217357 5.571812 1.017650
0.648890 5.842472 0.520688
1.086381 5.286492 0.262098
0.826003 6.452677 -1.402238
1.429689 5.373313 0.166334
5.067274 2.010701 -18.525468
1.056718 5.479048 -0.007152
1.702187 5.359877 0.406592
0.962338 5.805976 -0.289429
1.560152 5.641837 0.684670
1.555394 5.560972 0.675013
2.077457 4.894097 -8.050416
1.387294 4.406266 -0.216177
1.340788 4.237922 -0.284241
1.316320 4.490011 -0.136161
1.521486 4.062499 -0.309614
1.496664 4.115789 -0.299729
1.858600 5.670694 -0.158100
1.448788 4.383529 -0.228863
1.470772 4.173640 -0.293446
1.491478 4.391892 -0.233953
1.793606 5.897214 -0.140137
1.438113 4.420664 -0.218895
1.549920 4.092737 -0.293189
1.386314 4.276278 -0.267168
1.422057 4.458944 -0.196624
1.467045 4.438669 -0.213818
1.281461 4.529022 -0.082241
1.539399 4.129080 -0.286678
1.463023 4.356805 -0.243752
1.306373 4.534553 -0.108753
1.499952 4.878364 0.186262
1.498514 3.986829 -0.340428
1.370721 4.452652 -0.179539
1.581074 4.180047 -0.264166
1.563942 4.213884 -0.257148
1.768522 5.927578 -0.189873
1.397387 4.205492 -0.291713
1.961312 5.516940 -0.064837
1.439160 4.478268 -0.188890
1.288600 4.482059 -0.120114
1.891141 5.680142 -0.125984
1.448368 3.927649 -0.379114
1.514095 4.195022 -0.272331
1.860131 5.623099 -0.163659
1.415645 4.359615 -0.241798
1.550226 4.358579 -0.223804
1.610382 4.126260 -0.261859
1.326072 4.608438 -0.072988
1.754379 5.982281 -0.193451
1.509543 3.923980 -0.349672
1.440617 4.346807 -0.243016
1.905965 5.567709 -0.081906
1.349333 4.607222 -0.120842
1.389121 4.372587 -0.236092
1.445249 4.709904 0.338849
1.353928 4.178402 -0.311991
1.543549 4.181684 -0.272036
1.599108 5.676163 0.126305
5.004923 2.423483 -4.035613
1.465503 3.885171 -0.382739
1.639160 5.696828 0.196033
2.701706 4.257008 0.022326
1.666009 5.699133 0.256776
1.197893 3.937905 -0.469255
1.257586 3.872700 -0.494826
2.749169 4.235891 0.156023
1.231830 3.759912 -0.495359
2.755979 4.239999 0.273290
1.980859 0.624663 -0.433014
2.834571 4.092546 0.125190
2.862572 4.015219 -0.011521
1.653519 5.702624 0.228699
2.850286 4.054166 0.054398
1.238173 3.984552 -0.450645
1.252465 3.930645 -0.477836
1.792562 -0.283195 -0.696676
1.563207 5.648745 0.084010
1.697577 5.618701 0.206749
1.437524 3.736295 -0.430937
1.694711 5.599076 0.183115
2.776221 4.204517 0.293060
1.382912 6.853927 -1.620951
1.469471 6.835626 -1.557879
0.875286 7.037278 -1.856339
1.591137 6.941763 -1.393989
0.872731 7.390821 -1.805328
1.631321 6.863864 -1.399730
1.271031 7.079401 -1.585163
1.054543 7.252682 -1.692991
0.904908 7.221400 -1.817334
2.143844 6.411757 -1.163773
1.857147 6.837334 -1.046730
0.796878 6.933122 -1.880043
1.469021 7.028229 -1.423538
2.203989 6.318092 -1.159205
2.238310 6.412143 -1.054368
2.000571 6.750804 -0.966484
2.015430 6.726271 -1.043966
0.571135 6.988497 -1.928110
2.081359 6.711452 -0.908189
1.476042 4.208689 -0.172841
1.824259 6.671545 -1.309200
1.406802 6.907801 -1.577568
1.552331 7.090739 -1.183047
2.353955 6.235342 -1.084556
1.948177 6.757119 -1.093186
2.094921 6.681330 -0.967360
1.551141 4.203557 -0.282309
1.732908 6.944545 -1.092190
0.645701 7.010138 -1.912835
1.965472 6.573707 -1.243309
1.500167 4.187799 -0.148899
1.584094 7.014138 -1.240375
1.906156 6.698731 -1.229206
1.520952 4.188898 -0.207296
1.848810 6.577462 -1.331196
2.231238 4.367727 -0.795633
2.284697 6.323236 -1.075906
1.496083 4.203264 -0.205525
2.390288 4.566948 -0.893438
1.319314 6.992894 -1.613731
2.707949 5.052923 -1.029958
1.494658 6.919954 -1.493595
1.994055 4.199574 -0.602390
1.524404 4.179825 -0.176778
2.668295 5.109465 -1.051629
1.472226 4.194712 -0.084377
1.964190 6.781702 -0.914510
1.528073 4.200232 -0.249023
2.184556 4.385055 -0.801599
2.425451 4.427442 -0.843278
1.919198 4.141754 -0.492975
2.271976 4.492328 -0.867821
2.337679 4.405400 -0.824486
2.221995 4.144958 -0.613481
1.879316 4.317291 -0.657033
2.337499 4.529662 -0.885645
2.737721 5.141873 -1.013914
2.335181 6.309088 -1.036320
0.172863 7.377595 -2.180938
2.132213 4.066461 -0.448582
1.666514 4.212310 -0.422659
1.398146 7.054087 -1.487667
2.009410 4.063124 -0.391391
2.215773 6.589095 -0.885631
1.925590 4.097961 -0.424304
2.415126 4.496855 -0.876847
2.183354 6.634584 -0.623970
2.100387 6.678310 -0.647044
1.972002 6.785985 -0.700312
2.413921 6.239627 -1.026285
2.371295 4.185925 -0.687244
2.026317 4.044089 -0.351176
1.482748 4.184466 -0.052103
1.556348 4.164291 -0.200825
2.629956 4.770731 -0.975329
1.976556 4.276042 -0.660077
2.800148 4.148406 -0.680725
2.944353 4.257549 -0.759581
2.999045 4.816031 -0.952278
2.955269 4.184508 -0.713856
2.258644 4.557341 -0.902027
2.300869 4.116670 -0.592564
1.538084 7.006517 -1.349531
2.404869 4.132097 -0.623927
2.455843 4.200663 -0.700719
2.286817 6.494647 -0.904873
2.340827 4.587028 -0.908254
2.263707 6.555414 -0.868109
2.263093 6.793026 -0.617254
2.790268 5.116768 -1.001138
2.353975 4.092287 -0.566872
2.125704 4.213166 -0.649446
2.052061 6.706169 -0.655350
2.632459 6.590468 -0.769133
2.012950 6.752832 -0.737428
2.474452 4.705928 -0.973596
3.042365 4.191833 -0.724327
3.067181 4.235461 -0.752215
2.318777 6.631402 -0.612623
1.851558 4.143743 -0.458459
1.925609 6.799251 -1.031208
1.769913 4.133592 -0.374970
1.426691 6.974994 -1.536829
2.993611 4.576529 -0.911233
0.328295 7.119006 -2.070925
2.215561 4.095698 -0.540926
2.823237 4.536659 -0.915911
1.850234 4.109081 -0.401136
1.774086 4.115061 -0.338868
1.813378 4.141669 -0.427918
2.992837 4.303000 -0.781284
2.861014 4.231292 -0.755292
2.097351 4.275124 -0.704527
2.478059 6.676425 -0.708360
2.286225 6.534395 -0.781845
2.753335 5.201080 -1.002356
2.583301 4.911533 -0.999743
2.768620 4.708004 -0.967333
2.251617 4.086384 -0.526297
2.350617 6.461990 -0.808517
0.117972 7.152001 -2.144861
2.515988 4.029768 -0.496788
2.870834 5.149602 -0.985267
1.734539 4.102742 -0.265936
2.498236 4.057579 -0.533253
2.203065 4.476828 -0.840371
2.695096 4.291081 -0.800198
2.665397 6.225278 -0.737006
2.345345 4.134984 -0.627568
2.661560 4.087899 -0.582913
2.810821 5.251836 -0.991655
2.974802 4.758500 -0.961896
2.602583 6.375860 -0.736991
2.906834 4.570006 -0.908991
2.510627 6.329602 -0.756727
3.108218 4.125020 -0.642182
2.837933 4.640323 -0.954469
2.588198 6.165170 -0.888679
2.551887 4.351746 -0.831499
2.506724 6.163039 -0.974818
3.030682 6.244009 -0.887488
1.728495 4.091350 -0.218654
2.470345 6.361703 -0.741910
2.849387 4.740502 -0.954999
2.260641 6.655681 -0.602751
2.111802 4.030041 -0.388787
2.552222 4.262824 -0.774172
3.026419 4.634631 -0.905824
2.859815 4.600088 -0.926501
2.901499 4.697292 -0.949983
3.138536 4.080219 -0.618303
1.644599 7.036510 -1.092174
2.691603 4.386479 -0.852368
2.665310 6.278905 -0.702384
3.002285 5.802047 -0.739640
2.757627 5.953938 -0.823184
2.652063 6.059470 -0.905860
1.864300 7.083848 -0.553533
2.585044 6.026153 -0.978027
0.554058 8.109888 -1.982464
1.452150 4.204518 -0.021843
2.944782 5.788252 -0.812649
2.867159 5.660642 -0.924523
3.929671 4.197522 -0.662511
2.862466 5.983240 -0.740320
1.658616 4.122476 -0.225381
2.899937 5.844187 -0.784927
2.836484 5.510033 -0.978717
3.661433 4.435724 -0.756452
3.343502 5.870245 -0.931550
3.520198 4.330585 -0.733666
2.113870 6.939005 -0.553114
3.443815 4.437503 -0.791526
2.969193 5.853241 -0.726351
2.865862 5.874429 -0.813775
3.404930 5.772262 -0.934862
3.820694 4.661895 -0.776733
3.425562 5.267184 -0.778488
3.225437 4.158489 -0.639445
2.909385 5.930958 -0.715850
2.846707 4.191127 -0.719688
2.933601 5.535035 -0.907181
3.596441 4.492371 -0.773585
3.253591 5.315174 -0.800294
3.195982 5.426588 -0.793468
2.971838 6.343414 -0.883763
2.627292 4.026777 -0.528923
3.131953 5.349430 -0.888867
2.849470 5.924843 -0.795208
3.191799 4.522057 -0.902019
3.217898 5.280871 -0.882551
1.674109 4.109468 -0.184691
3.076885 5.492875 -0.856556
3.159640 5.535266 -0.765167
3.312257 4.466462 -0.830570
2.554074 6.271618 -0.775238
3.776399 4.283122 -0.689273
3.554954 5.159185 -0.827572
3.181654 5.003821 -0.906030
2.825407 5.976759 -0.785003
2.341676 6.562866 -0.675892
3.217162 4.452733 -0.857187
2.282595 6.560250 -0.663710
2.580825 6.681922 -0.770572
3.131252 5.517260 -0.813455
3.713739 4.774405 -0.799203
2.635065 6.329112 -0.755880
3.556931 4.419478 -0.757266
3.345839 4.938422 -0.854738
3.219938 4.103808 -0.613041
3.241497 5.377460 -0.777012
5.002528 3.434800 -0.998992
3.409878 4.865610 -0.835831
3.321022 4.855035 -0.865187
3.306186 4.590750 -0.847789
3.135801 5.122351 -0.910697
5.472007 2.367836 1.053785
3.098329 5.078709 -1.050734
3.885182 4.329538 -0.689356
3.427395 5.031463 -0.819302
3.455049 4.814219 -0.840978
3.076378 4.935847 -0.972539
3.536018 4.860071 -0.806795
3.125262 5.420896 -0.857195
3.504512 4.951010 -0.810928
5.429137 2.487449 1.043881
4.997204 3.415036 -0.570421
5.513612 2.879768 -0.756440
5.571509 2.668004 -1.139699
5.582546 2.765542 -0.968766
5.197377 2.619343 -1.402480
1.437849 4.223881 0.061489
5.405534 2.596880 -1.370120
1.803747 7.204483 -0.759232
3.378396 5.829817 -1.790271
0.615650 5.079844 -0.535427
2.063830 6.868455 -0.316512
5.863469 1.943956 1.015713
0.768530 5.032719 -0.454674
5.361540 3.092540 -0.442324
0.748806 5.073047 -0.463942
0.805706 4.974398 -0.438419
2.034748 6.802736 -0.195717
5.467898 2.665499 -1.231892
0.784236 4.928652 -0.377545
0.750163 4.976757 -0.397728
1.606185 4.707437 0.518464
1.524584 4.768431 0.512082
1.528476 4.770604 0.502295
1.522193 4.776971 0.513162
1.498146 4.793125 0.535739
1.722455 4.541983 0.527860
1.608176 4.714583 0.519505
1.294936 5.803035 -0.674719
1.175550 5.959550 -1.745667
1.311180 5.834582 -1.403457
1.397044 5.734046 -1.090383
1.006107 6.770840 -2.185552
1.027891 6.442915 -1.964017
0.599074 7.262839 -2.957256
1.176839 5.833611 -1.685431
-0.067229 6.019014 -2.751789
-0.699965 7.048525 -3.299902
1.249391 5.828702 -1.561969
1.481503 5.217198 -0.761370
0.794864 6.765149 -2.506720
-0.404608 6.982127 -2.884946
0.787702 6.496760 -2.437460
1.410328 5.548749 -0.939974
1.543277 4.356929 -0.277465
-0.345461 6.903639 -2.947547
1.297442 5.662416 -1.404335
0.901635 6.260450 -2.347501
0.798887 7.039529 -2.518978
1.434465 5.203097 -0.918732
0.028973 6.177863 -2.685942
1.461958 5.499956 -0.831883
0.299578 6.735895 -2.589996
0.680219 6.208911 -2.481138
0.642715 5.168996 -1.711596
1.415999 5.485498 -0.929938
1.498425 4.351165 -0.324554
-0.092638 6.718135 -2.866633
0.100360 6.046261 -2.666515
0.496883 7.131213 -2.681791
0.218366 6.590466 -2.733128
1.421335 4.338348 -0.412606
0.663796 6.023284 -2.386571
1.527809 4.483868 -0.380802
1.289757 5.337451 -1.270953
1.277942 5.584943 -1.339336
1.527085 5.201849 -0.712303
1.325302 5.716789 -1.357640
1.488508 5.176007 -0.823841
0.317044 6.689107 -2.694388
0.897378 5.615584 -1.878302
0.066529 6.788705 -2.733950
0.096645 6.718617 -2.806879
1.461261 4.451790 -0.461708
0.401727 6.927104 -2.431082
0.330329 6.596042 -2.758038
1.458673 4.367897 -0.393519
1.236337 5.513685 -1.426870
1.420226 5.687441 -1.102675
0.544676 6.490653 -2.702898
1.498360 4.535803 -0.445697
0.479928 7.052499 -2.385742
0.763792 5.850869 -2.172804
1.182757 5.344870 -1.403224
0.005045 6.544859 -2.869226
0.649027 5.373277 -1.872171
0.400174 5.900316 -2.435919
1.507427 5.128137 -0.760193
1.246709 4.486183 -0.760038
1.110598 5.479984 -1.608621
1.365756 4.489645 -0.608312
0.629413 5.646673 -2.127445
1.497469 5.082257 -0.788389
1.517654 4.510235 -0.412484
0.509586 5.914996 -2.341666
1.430603 4.491163 -0.520251
1.303000 4.516330 -0.728316
0.800799 5.643073 -1.942676
1.287483 4.463217 -0.658017
1.471796 5.119044 -0.818409
-0.083609 6.108794 -2.691124
1.309548 4.686343 -0.806926
0.720123 5.213413 -1.736589
0.160807 6.506721 -2.783219
1.532096 4.558583 -0.413797
0.517995 5.291104 -1.950805
0.540415 5.793633 -2.283604
1.463760 4.492590 -0.473515
1.195530 5.032842 -1.190665
1.044263 4.710891 -1.087540
1.518470 4.459233 -0.368686
1.151378 5.195878 -1.335760
1.016324 5.065349 -1.432407
1.394092 4.948147 -0.918893
1.369762 4.764801 -0.822835
1.287978 4.722928 -0.881832
0.951903 5.125879 -1.463236
1.314797 4.635047 -0.756466
1.192105 4.975972 -1.212405
0.976150 4.772113 -1.214130
1.439025 4.312861 -0.386504
