ply
format ascii 1.0
element vertex 479
property float x
property float y
property float z
end_header
-2.144831419 1.657547951 1.719526291
0.362133652 -0.965148985 1.227396727
-0.342948198 0.496436000 1.141146779
-1.111713648 -0.011229108 1.494830608
-0.327895731 0.638444185 1.035481811
-1.033881783 0.900106788 1.431912184
0.053450454 0.097114816 0.995722651
-0.340289146 0.054541208 1.294494271
-0.598473370 0.322063059 1.192208409
-1.504194617 0.783674955 2.065873623
0.436262369 -0.704479992 0.665659666
0.221234158 -0.194105104 0.821436167
0.227330476 -0.405954599 0.910412490
0.235125750 -0.299758166 0.683996141
-0.497440696 -0.527352512 1.685956717
-0.245561734 -0.078461565 0.910477519
-0.817584872 -0.602384269 1.475882411
-0.015425965 0.350425690 0.962005973
-0.990063787 0.904788554 1.374199867
-0.835083723 0.843241096 1.262358785
0.348934144 0.311884820 1.018413424
0.273118019 0.205461949 1.002643108
-0.014982491 0.533443928 0.800786912
-0.018809218 0.730335951 1.028162479
0.010353682 0.705875456 0.993910909
-0.456957370 0.074920952 1.007049561
-0.579952955 0.516321659 1.227247000
-0.526999891 0.491688818 1.186831951
-0.638995230 0.451365680 1.005425334
0.098434091 0.315957129 1.282225370
0.049433671 0.261786789 1.002427578
-0.289473057 0.487517387 1.081971049
-0.354519755 0.600967228 1.282786489
-0.252987862 0.033727851 0.812323928
-0.397903442 0.535352468 1.018954873
-0.460712016 0.202410966 0.949570775
-0.416011661 0.207509041 0.981735051
-0.584847212 0.311753035 1.336874604
-0.709231734 0.831456363 1.396355987
-0.662620902 0.104258843 1.065722346
-0.834316730 -0.452385247 1.397732973
0.413857847 -0.210459918 1.227891564
0.245952830 -0.119470969 0.753906250
0.351868063 -0.399577260 1.188551068
0.188438445 -0.207734331 0.690741658
0.192177951 -0.092446744 0.680607617
0.233637318 -0.108058885 0.976796925
0.161545157 -0.060480710 0.563863814
0.184462294 -0.318538517 0.929569244
0.151876003 0.460293591 0.868271410
0.055873167 0.520051003 0.871080041
0.036029022 0.471222430 0.738637686
0.090546668 0.546140611 0.863530040
0.067820676 -0.172518492 0.715840340
0.043284729 0.494640738 0.878303230
0.041639805 0.520108700 0.881553292
0.084698394 0.477709144 0.826541185
-0.034862120 -0.184815034 0.733587921
-0.143992960 0.279969454 1.153343797
-0.118783146 0.559647560 0.881847978
-0.157068521 0.534156740 0.782983541
-0.162630945 0.683617711 0.942568779
-0.242957368 0.269668877 1.029428720
-0.323599219 -0.339579433 0.949959815
-0.371728539 0.341225415 0.915348291
-0.905604661 -0.138542175 1.307252407
-0.908980906 -0.516658008 1.293226361
0.200914189 -0.194208294 0.710711658
0.199498117 -0.070883632 0.737742841
0.209116340 -0.054250538 0.774496198
0.209521756 0.514703572 0.825695395
0.248101339 0.515594006 0.801772594
0.221103832 0.094352409 0.945581257
0.097283766 -0.464750856 1.497692466
0.083347604 0.270162344 1.322943211
0.016085580 0.337853134 1.153034687
-0.213198036 -0.114554502 0.935284793
-0.230034068 -0.278514981 1.017722130
-0.312825143 0.472298384 1.104554176
-0.240035072 0.410215467 1.009011745
-0.321862668 0.603053033 0.876598895
-0.317648679 0.642740011 0.866589010
-0.550809741 0.701836586 1.061294913
-0.656927645 0.629659355 1.237668872
-0.721760690 0.091799662 1.124174714
-0.988622129 0.719531894 1.284833908
-0.797778428 0.577840447 1.073299646
0.232420623 0.009473753 0.759004831
0.346625239 -0.346860915 1.029406786
0.286810428 -0.453510165 0.935527802
0.230313331 -0.397155076 0.869643033
0.147925347 0.409707516 0.754831672
0.189322814 0.471875250 0.854309916
0.171535611 0.331342071 0.741563916
0.085988894 0.209198534 0.831319690
0.116950877 0.081682131 1.102564454
0.087953463 0.409898877 0.906175792
-0.112347215 0.632337093 1.068154216
-0.077851363 -0.226536721 0.753128946
-0.136814773 0.242979929 1.095522165
-0.168973997 0.408850253 1.128879666
-0.164496109 0.556505680 1.051229358
-0.115904026 0.263016343 0.943240941
-0.086290047 0.247601181 0.889637589
-0.161012843 0.198814586 1.068621159
-0.249923319 0.645155072 1.026297212
-0.282455653 0.658077240 0.992942631
-0.283065438 0.306623816 1.097839355
-0.246992722 0.290842444 1.045147300
-0.202361524 0.170364290 0.810724735
-0.275593221 0.247251078 0.813946247
-0.340834796 0.330273002 1.007644892
-0.481972486 0.511695564 1.112858653
-0.543810070 0.751065195 1.240990758
-0.604202330 -0.228958607 1.472517967
-0.356331646 0.667048633 0.892860949
-0.706705153 0.313542902 1.101724148
-1.204922080 -0.565565526 1.914634466
-1.161845803 -0.572386086 1.955307126
-0.829485238 0.605788827 1.249228716
-1.724812269 0.816159070 2.281557083
-2.140563726 -1.111476183 2.974980354
-0.836121500 -0.153666660 1.286086082
-1.035888910 0.482161552 1.310964227
-3.095471621 1.876800418 2.019310951
0.207693070 0.403451264 0.623992682
0.275795043 0.524156809 0.791738272
0.225989267 0.350019962 0.694255590
0.284463853 0.414199293 0.816724479
0.282983482 0.325780213 0.921238780
0.302671492 0.291621357 0.875300884
0.273972571 0.381641626 0.792225718
0.278830230 0.365818381 0.974898279
0.186576054 -0.096272014 0.874858499
0.272146821 -0.529405951 1.188094974
0.200520381 0.231226355 0.905400395
0.165964842 0.296777278 0.756989896
0.196577683 0.386628062 0.901652277
0.081761375 0.082305193 0.798782468
0.096542969 0.405156523 0.895127237
0.104848966 0.397614896 0.734857559
0.093069330 0.470598251 0.794250309
0.059114385 -0.091953039 0.638965309
-0.036538944 0.512941599 0.942960143
-0.066534817 0.514784813 1.155334592
-0.099084742 -0.006888756 0.680419326
-0.127434865 -0.302934438 1.082195759
-0.099392742 -0.248010367 0.979187906
-0.140070394 0.620481431 0.914037049
-0.203746587 -0.521843493 1.440537572
-0.282196343 0.119474120 1.221862555
-0.316864908 -0.087757766 1.050978780
-0.336152852 -0.058733001 1.023586750
-0.297679812 -0.297215194 1.038029909
-0.317503273 -0.043622669 0.983858466
-0.576834500 -0.445450574 1.437038779
-0.423323154 0.642707586 0.959593356
-0.470784634 0.790030479 1.148384929
-0.567691922 0.760421574 1.045387983
-0.468930960 0.097057998 1.006174207
-0.586241901 0.672426879 0.945423961
-0.630441427 0.778969884 1.095997691
-0.386334419 0.052080423 0.798886120
-0.966291904 0.852841794 1.406482100
-0.769610226 0.603298724 1.021059275
-0.694622815 0.592197359 0.966127396
-1.169678569 -0.084793977 1.656519413
-1.135637164 -0.044210933 1.575689673
-1.305551291 -0.602094054 1.935581088
-0.032512348 -0.403198808 1.138171434
-0.005235975 -0.242491841 0.718309224
-0.072729632 0.363767236 0.860884249
0.179312140 0.182073027 0.594904840
0.279341698 0.268996060 0.861433268
0.192552194 0.198504820 0.613861978
0.442112595 0.446623564 1.370022416
-0.140070915 -0.282237619 0.763348877
-0.267690450 0.267643332 1.062880039
-0.212614655 0.022907440 0.746778429
-0.211503059 0.030524231 0.743066669
-0.517134905 0.040775944 1.096993446
-0.726336956 -0.545910180 1.440254569
-0.724223971 -0.505275548 1.368240952
-0.819414735 0.284854770 1.218373656
-1.039793491 0.364455372 1.491061091
-0.793202102 0.291819453 1.190431476
0.846959829 -0.459831685 0.499236703
0.231688797 -0.152534693 0.718548417
0.211769581 -0.126989409 0.655988097
0.242606178 0.511248827 0.855896533
0.177823424 -0.208926708 0.773643672
0.266167879 0.223191366 1.037823081
0.241445631 0.230868161 1.037761569
0.178509697 -0.229977757 0.764733970
0.206358343 -0.248381034 0.808464706
0.192693099 -0.229440719 0.799463034
0.141841426 0.537146330 0.771862984
0.153127417 0.133108050 0.833872914
0.151472330 0.152786702 0.873090982
0.131399244 0.439223766 1.081034064
0.083761230 0.370249331 0.901976466
0.058501150 -0.249386176 0.891819715
0.003597688 0.134145215 0.797579646
-0.010393263 0.419532955 0.861276925
-0.050635409 -0.247596025 0.824734688
-0.074272133 0.630631745 1.031817555
-0.115105189 0.368348718 0.906722426
-0.174199522 0.002731384 0.841541708
-0.211276412 0.543923199 0.974509478
-0.306934357 0.537154913 1.214748144
-0.269448578 0.056566488 1.021429420
-0.235188022 0.062042832 0.948168099
-0.208014533 -0.097089402 0.726443768
-0.251736879 -0.103005230 0.819315672
-0.355250448 0.113396280 1.159335494
-0.349555373 0.250284135 1.188811779
-0.412309766 0.354389548 1.090332150
-0.476627022 -0.446165532 1.244371891
-0.500082493 -0.548759222 1.378275990
-0.697802663 -0.697831213 1.849778771
-0.684262156 -0.715702295 1.903436780
-0.614596546 -0.116111435 1.388708591
-0.545807958 -0.148074612 1.137804389
-0.816253841 -0.231659904 1.792168379
-0.556550622 0.669281006 1.086082101
-0.483598769 0.589948356 0.930954516
-0.579863548 0.378611386 1.003033519
-0.823983967 0.798946977 1.292521000
-0.795422196 0.254025638 1.344850183
-0.917139709 0.841033220 1.360063672
-0.905594885 0.322289169 1.418751955
-1.385124445 -0.744514287 2.208617449
-1.101183891 0.118110038 1.795173049
-0.869232595 0.029849041 1.342664838
-0.834995627 -0.136227354 1.257593870
-1.235532522 1.224190950 1.649616122
-1.754234910 0.392674685 2.338452578
-0.792785048 0.177443489 1.012746096
0.252889603 0.110122561 0.781912684
0.164955646 -0.094547264 0.541547537
0.252189457 -0.249697000 0.779619813
0.218746901 -0.005873626 0.713764191
0.213387951 0.444101453 0.643574238
0.281836361 0.549438477 0.802890062
0.210962310 -0.235486299 0.656370521
0.286138117 0.168571010 0.940042436
0.298721045 0.284587473 0.979295373
0.264990360 0.238049999 0.812515020
0.224470377 -0.522559285 0.712937951
0.293673426 -0.650086224 0.883123517
0.225441620 0.333375335 0.828271449
0.198751748 0.275578678 0.684338868
0.310571909 0.080325626 1.129849911
0.298880428 0.093838371 1.154152274
0.214870721 0.194781870 0.753198326
0.249901146 0.543077767 0.817735255
0.238611326 0.183804706 0.836784542
0.229965404 0.209371865 0.870690286
0.247944936 0.204486191 0.867602408
0.249306202 0.382415444 0.871358275
0.273217350 0.415573686 0.894640088
0.205383956 -0.122225344 0.896212041
0.206475690 -0.106415235 0.860240102
0.214481503 0.043312490 0.943716586
0.251254946 0.045275830 0.990988374
0.220418379 0.360301226 0.859566569
0.213578060 0.193881139 0.844607890
0.221248612 0.223477468 0.891287208
0.197265372 0.454631001 0.790063620
0.194597334 0.503697634 0.828574777
0.166977346 0.470214635 0.751063704
0.187659174 0.369832277 1.039043784
0.151077330 0.500759244 0.776291072
0.160164207 0.505608678 0.774208367
0.203680754 -0.394093484 1.138075590
0.127985030 0.236732826 0.799597561
0.121827193 -0.268214285 0.765315711
0.141022861 0.476670325 0.889905810
0.133266136 0.526408851 0.800739944
0.110932074 0.405605346 1.059045672
0.134416237 -0.361630887 1.295015693
0.080556460 -0.190107167 0.679202199
0.097169399 0.045117375 0.916085780
0.078924902 -0.098054409 0.734050512
0.061297964 -0.062415447 0.502249956
0.067677304 -0.214642212 0.756154537
0.102146506 0.452985615 1.186122298
0.078839377 0.597258627 1.071265936
0.074160032 0.456947356 0.819066405
0.065464005 0.523372352 0.866446197
0.078850091 0.515950739 0.853510022
0.098735578 0.251527697 1.263183355
0.116067313 0.247351184 1.242007732
0.078094810 0.329833299 1.467388034
0.045254707 0.215491578 0.875937998
0.050318141 0.432245433 0.984308839
0.011533927 0.332187355 0.911855757
0.024635386 0.443719447 0.845687389
0.012456452 -0.192440748 0.854129314
-0.009738827 0.255677849 0.841475368
-0.036705416 0.686679602 1.030491114
-0.040429324 -0.226666555 0.798098028
-0.039646637 0.569431782 1.183426499
-0.030264311 0.457071573 0.903552830
-0.062403914 0.465054959 1.134059906
-0.059527248 0.519395947 0.821912646
-0.067018904 0.210895061 0.821245968
-0.092442766 0.361790031 1.355732203
-0.016441945 -0.025082208 0.266642123
-0.059479170 0.152187333 0.725588620
-0.045820858 0.044631727 0.566949368
-0.081130266 0.076103464 0.732657909
-0.065311730 0.070992090 0.683680475
-0.136940926 0.251042068 1.223965049
-0.110258378 0.233792260 1.056435585
-0.098395556 0.364755630 0.886236846
-0.082623892 0.362269759 0.868811786
-0.083926849 0.193614021 0.820323944
-0.101427868 0.241511628 0.901404262
-0.089204155 0.070616357 0.826153100
-0.101943016 0.403911442 0.915853620
-0.090599164 0.396895468 0.900627494
-0.085100532 -0.264110476 0.818987191
-0.155333757 0.507545173 0.903383076
-0.150290325 -0.292403340 0.837914109
-0.271678090 0.443457246 1.274025440
-0.153006941 -0.192849100 0.827459574
-0.189655781 0.673224926 0.923435152
-0.182340786 0.144613892 0.873515666
-0.158622414 0.135703206 0.821068227
-0.217923075 0.593108296 1.115273714
-0.256097734 0.173841313 1.235044599
-0.157616362 0.117292270 0.827866912
-0.264584124 0.232422844 1.275199771
-0.231951863 0.219775707 1.208634496
-0.228663549 0.545003235 0.937317252
-0.232003257 0.205487207 0.986303329
-0.234794006 0.223714441 0.997326553
-0.208405852 0.039982893 0.896229327
-0.275759339 0.083357729 1.025045395
-0.308396459 0.435327053 1.094577789
-0.281407326 0.426892340 1.060719609
-0.307717592 0.597358882 1.017192602
-0.258549482 0.564724743 0.967631519
-0.267105758 -0.147870004 1.071748018
-0.163475424 -0.079250209 0.643342555
-0.181032717 -0.105031207 0.666817248
-0.503823698 -0.593039095 1.803490877
-0.220363006 -0.272340596 0.859210134
-0.316328734 0.649630547 0.931190252
-0.294124782 0.609655321 0.852609217
-0.309629560 0.088745326 1.086653471
-0.368355721 0.067582928 1.202486515
-0.276381463 0.221179917 0.925143421
-0.295446873 0.238758534 0.952963293
-0.669949353 -0.746320367 1.993196130
-0.322991818 0.532033980 0.951780736
-0.336562216 0.370059371 1.005879283
-0.353996515 0.377051473 0.995438457
-0.372122467 0.130634725 1.058354855
-0.423609585 0.383383095 1.099250674
-0.327970564 0.570986271 0.827470243
-0.471714228 0.819952369 1.140252352
-0.389932930 0.549930215 1.009609342
-0.448749274 0.629132092 1.103135705
-0.381951988 -0.258825719 0.931138396
-0.421004057 -0.113151841 0.975430965
-0.433584064 -0.147134662 1.030652523
-0.686553240 -0.209113210 1.588473678
-0.580712199 0.348835319 1.303941965
-0.557152927 -0.337947160 1.265805364
-0.428314090 0.413538009 0.957891583
-0.383410513 0.072060883 0.877403140
-0.566327572 0.112483606 1.351907253
-0.432745367 0.057320338 0.992870986
-0.307277292 0.038210206 0.724814951
-0.528941512 0.547785163 1.151337504
-0.504600883 0.535507202 1.129341125
-0.681284487 -0.506583333 1.507385492
-0.534012020 0.673452377 1.109954238
-0.476841331 0.610684276 1.028065681
-0.487997442 0.456603229 0.994398177
-0.484800339 0.470867664 0.983514249
-0.458323419 0.053952165 1.023950219
-0.476269841 -0.106296346 1.006447196
-0.796588838 -0.501833558 1.711685061
-0.504151404 0.284799606 1.048053026
-0.772534430 -0.312520742 1.501197696
-0.560095012 0.266004860 1.111549377
-0.539018869 0.667085409 0.904428303
-0.447214097 0.589522839 0.776489258
-0.487842798 0.326724559 0.914331734
-0.591005743 0.416731209 1.115261436
-0.677275181 0.695132613 1.209077477
-0.523196518 -0.109805748 1.065166354
-0.599881232 0.207424149 1.097348809
-0.644360185 0.225860164 1.224945784
-0.652944922 0.560179532 1.115727663
-0.859515607 -0.304432958 1.482416272
-0.756144643 0.449717700 1.257316351
-1.449499130 -1.135751247 2.249990940
-0.829889357 -0.181109473 1.332579374
-1.099272132 0.706942856 1.684923172
-0.869218647 -0.462875515 1.236768246
-1.152346969 -0.598024011 1.700151443
-0.825190842 0.310436815 1.196859121
-0.960552454 0.380066156 1.386014223
-0.781761885 0.244300082 1.138347864
-1.257995725 0.414368600 1.811190248
-1.433224797 -0.294307739 2.153982639
-0.787911236 0.486445904 1.101451755
-0.768577397 0.468935728 1.101448298
-1.650156379 -0.401619464 2.420421124
-0.950886250 -0.240950868 1.457089305
-0.768992186 0.089083940 1.159653544
-1.109758377 0.154018477 1.636170387
-0.877699256 0.587069571 1.139021635
-0.779530466 0.539387465 1.048868656
-2.025484562 -0.600607574 2.894122362
-1.100621343 -0.297580749 1.559392929
-1.114218593 -0.597228229 1.489127636
-0.908186793 0.049221694 1.300049067
-1.248307705 -0.408948094 1.759486794
-0.885529459 0.062600605 1.267220140
-1.249721885 0.119192116 1.806176901
-0.888144016 0.161317468 1.139376163
-1.082789302 0.461776286 1.378757715
-1.047517180 0.439983159 1.379675746
-1.209871650 -0.069842808 1.643167257
-1.215497255 -0.034604490 1.584281445
0.209725723 0.034110572 0.735520184
0.216325030 0.042999268 0.758693159
0.243779540 0.079218447 0.854671299
0.314561397 0.030867249 1.126003623
0.245241150 0.028757183 0.947486103
0.122889750 -0.217240915 0.670030653
0.115425996 0.563790500 0.832278848
0.037944425 -0.067044288 0.522114813
0.044821650 -0.166898951 0.649397254
0.059705492 0.360743552 0.905022562
0.047775254 0.369573653 0.900509059
0.016068194 0.505352616 0.766956806
-0.009252449 -0.425042540 1.200018287
-0.013566662 0.159599915 0.869240046
-0.058316614 0.346233755 0.819363952
-0.069718853 -0.294675857 0.932436705
-0.091465928 0.570372760 0.881879687
-0.065625712 0.028727856 0.631522357
-0.098910213 0.366077423 0.787585497
-0.104719065 0.436453134 0.938500166
-0.111483812 0.532198548 0.867586851
-0.100262441 0.524238765 0.855367601
-0.167832106 0.592801511 1.067446113
-0.106982879 0.003692354 0.711376607
-0.220724210 0.620339036 1.125126004
-0.258701026 -0.274559677 1.000000000
-0.319074214 0.112745970 1.099060774
-0.208606869 0.077381730 0.747994840
-0.250031203 0.201596767 0.886177540
-0.224104628 0.020847138 0.730300784
-0.453576744 0.024481438 1.086081028
-0.648813546 0.867727280 1.302751541
-0.619781375 0.856835961 1.276555538
-0.685396671 0.320844591 1.468863845
-0.468569309 0.231605053 1.032005787
-0.646757483 0.566508591 1.276712656
-0.683404326 -0.002700059 1.265601158
-0.622609973 0.151110113 1.045534253
-0.775433064 0.499970019 1.235027671
-1.086366892 0.755120397 1.611164689
-1.797658443 -0.899230242 2.719833136
-0.751146555 -0.370654941 1.160732269
-0.785601735 0.082534112 1.225605011
-1.007838488 0.987332940 1.290597677
0.038511809 -0.436210513 1.229856849
0.016776847 -0.453670830 1.280857801
-0.010166519 -0.477844566 1.268790007
-0.867363274 0.834671319 1.307778835
-0.626934946 0.478451341 0.977276504
