ply
format ascii 1.0
element vertex 722
property float x
property float y
property float z
end_header
1.448534608 -3.860595942 4.909586906
-8.579325676 6.630191803 6.878105164
-1.311582923 2.553776741 4.141927242
0.213801816 0.388459265 3.982890606
-2.393893480 1.288252234 4.768833637
1.745049477 -2.817919970 2.662638664
0.909321904 -1.623818398 3.641649961
-1.989762783 -2.109410048 6.743826866
-3.270339489 -2.409537077 5.903529644
-0.059929963 2.133775711 3.203147650
-0.075236872 2.921343803 4.112649918
-2.107999563 1.966755271 4.747327805
-2.555980921 1.805462718 4.021701336
0.393736362 1.263828516 5.128901482
-1.011951447 0.134911403 3.249295712
-1.842848063 0.809643865 3.798283100
-1.664046645 0.830036163 3.926940203
-2.339388847 1.247012138 5.347498417
1.655431390 -0.841839671 4.911566257
0.753753781 -0.830937326 2.762966633
0.768711805 -0.369786978 2.722430468
0.271282703 -0.690073967 2.863361359
0.338793576 1.910836577 3.306164742
-0.139448479 -0.739260137 2.934351683
-0.650523782 2.734470844 3.770275116
-0.971829474 1.078675508 4.117714882
-3.622418642 -0.554168701 5.229009628
-3.635923624 -2.066632032 5.172905445
0.884415329 0.377409637 3.782325029
0.389135063 -1.859003425 5.990769863
-0.920136273 -1.114059925 4.070888519
-0.960140288 1.640861869 4.036046982
-1.270594716 2.570960045 3.466356039
-2.887042761 0.367198646 4.496698856
-3.954488516 2.878127575 5.139335632
-3.191113710 2.311361790 4.293198586
0.757291257 1.887501001 3.417239666
0.351813853 1.639595509 3.624703169
-0.311405450 -0.906146884 3.012515783
-0.547259092 0.971919715 4.382088661
-0.675895989 1.635401011 4.515518665
-0.999693274 2.580620289 4.105188847
-1.132261753 1.226495266 4.391357422
-1.927889943 2.046782255 4.451434612
-2.175240278 3.004260778 4.963963032
-2.416809320 -0.915834427 5.890071869
-2.826820612 1.254171610 4.406896591
-6.899249077 3.264636278 9.126228333
-8.562254906 -4.445904732 11.899921417
0.802081525 0.924905419 3.621601582
0.386171877 1.620626092 3.580508947
-0.814986348 -2.087373972 5.762150288
-1.128785372 0.477896482 4.887450218
-1.267459631 -0.351031065 4.203915119
-1.693292618 2.570830345 3.838373423
-2.778491259 2.368789434 3.864509583
0.717248559 0.728292108 2.379619360
-0.850458622 0.091629758 2.987113714
3.387839317 -1.839326739 1.996946812
0.525596976 1.756895065 4.324136257
-0.460420758 1.473394871 3.626889706
-0.696798086 0.010925538 3.366166830
-1.227737427 2.148619652 4.858992577
-0.832058132 -0.388357610 2.905775070
-1.006947517 -0.412020922 3.277262688
-1.421001792 0.453585118 4.637341976
-2.000329971 -2.195036888 5.513103962
-2.458386183 -0.464445740 5.554834366
-4.942130089 4.896763802 6.598464489
-7.016939640 1.570698738 9.353810310
-3.171140194 0.709773958 4.050984383
0.853551805 1.776405811 2.574296951
0.843849242 -0.941945195 2.625482082
1.174693704 -2.600344896 3.532494068
0.954445302 0.735218823 3.347138166
0.919861615 0.837487459 3.482761145
0.997224808 1.529661775 3.485433102
0.857926011 0.173249960 3.774866343
0.487308770 -1.072857141 3.061262846
0.315699607 -0.392217636 2.936202049
0.408586025 1.811942458 4.744489193
0.315357506 2.389034510 4.285063744
0.296640128 1.827789426 3.276265621
0.394942313 1.006110787 5.052733421
0.201272562 1.728981733 3.937235355
0.049825806 -0.769762993 3.416517258
-0.158586547 2.277727127 4.733705997
-0.237916678 0.608749330 2.902354479
-0.261246920 0.283968359 2.734721899
-0.356816620 0.282465428 3.304612398
-0.621335030 2.030180693 3.613532305
-1.058336496 0.929691374 5.100799084
-0.939176023 0.894857764 3.989306211
-0.833623409 0.159931570 3.584917307
-1.230870366 2.389435530 4.068770409
-0.724130869 -0.420124829 2.667268991
-2.679797411 -2.985281467 7.972784519
-1.907365322 2.442737103 4.112262726
-2.399524927 0.829696596 4.389395237
-5.797996521 -4.543004990 8.999963760
-4.609387875 -2.392096043 6.800605774
-3.803544998 -0.963803470 5.828357220
-3.510797024 2.348278284 4.556086540
-8.101938248 -2.402430296 11.576489449
-4.456874371 -2.388912916 5.956510544
-4.331157207 1.847105145 5.515030861
-4.839486599 -0.279371232 6.572669029
0.838902891 0.136442289 2.942080736
0.975118160 0.316873789 3.418685198
1.258245587 0.123468995 4.504014492
0.980964601 0.115028732 3.789944410
0.461703986 2.255162001 3.329115391
0.151777700 -0.268177152 2.088459253
-0.054266647 0.638399661 3.476960182
-0.395640850 1.464309692 3.150341988
-0.418876261 1.745812535 3.754000664
-0.427931517 0.014769414 2.845506430
-0.896418512 0.083388552 2.921203136
0.067107387 -1.814683318 5.123431206
-0.040666077 -1.911378264 5.075160027
1.729020000 -0.005377660 5.280166149
0.640147984 1.545317769 2.344079018
0.434870124 0.667255521 1.221457839
-8.262594223 -4.493936539 13.435413361
2.834692240 2.264330626 0.191669956
0.281604558 1.005483747 1.721616387
-2.453923702 0.673268855 3.781319380
-2.426904440 1.804804206 1.295020938
2.940791607 1.491933107 2.138056278
1.870515347 1.469808817 1.487531304
1.607325196 1.228177786 0.881271303
2.637967348 -1.487223268 1.535011053
-0.387245655 1.676183462 1.866745234
-0.044428468 1.077487707 1.677635789
5.246893406 0.221554026 3.610065460
0.154551283 -0.024282711 0.590352833
0.664267898 0.320201874 2.524008989
0.080598697 1.009392738 2.255042315
0.652191460 0.840686738 2.366866112
0.397738218 0.551462531 1.449540854
2.931573153 -0.351405442 0.017097350
0.295810044 0.553899527 1.175822258
0.733319581 1.422186136 2.927621365
0.047739111 1.287533641 1.827206492
-0.656102180 0.939685881 1.572487116
-1.693051696 0.627237380 2.249839306
0.606883764 -1.352699161 1.856133819
0.475799739 0.319668591 1.661260486
0.036134880 1.522362947 2.629769325
0.044497587 1.825355053 2.957683802
0.602297127 0.193215221 2.027658701
0.872062147 1.125231981 2.627830029
3.381772280 -1.646170020 1.815156698
2.303691149 1.838957548 1.885439873
-1.130634069 2.160661221 2.932456732
-5.605700016 -2.867317200 7.746955872
-2.686489820 -1.106852293 4.390217781
2.657318115 -0.319888562 0.028449321
-0.790615141 0.207213759 1.563616753
0.589561045 2.174352884 2.646698713
4.916997433 0.304870695 3.510885000
0.388952851 0.011520476 1.130531311
0.394387186 0.239548355 1.401537657
0.387370050 0.281647652 1.308600068
0.097304538 -0.087037064 0.601401448
0.240162492 -0.002581070 0.973623037
0.332273066 0.407884330 1.163686514
0.701700568 0.813615561 2.087099791
0.121850245 0.026993476 0.765223145
0.371346086 0.857538581 1.409542322
-1.276023626 1.295165539 1.904022932
-0.945374131 1.118960142 1.452251554
-1.538884997 1.944678783 2.573327780
-1.441568613 -0.102345653 2.186906338
-0.904369593 0.444077611 1.350778580
-2.093278885 0.408299565 3.221623182
3.736639977 0.089830868 2.184993267
2.766023874 1.993661523 1.727435827
4.445899963 3.272624731 2.717481375
0.691898108 0.541747689 2.077658415
0.794315875 0.757716537 2.365392685
0.399363935 0.079661958 1.158652782
-4.284498215 -1.674156785 0.880950153
0.210035339 0.118484966 0.888856471
0.541622341 -0.017659355 2.369718313
0.202260196 -0.007438265 0.721653759
0.684797704 -0.017936634 2.551498890
0.233649969 1.048434377 1.750423670
0.250062495 1.447889805 2.901980639
0.279240429 1.364974380 2.729957104
0.073430963 1.151771307 1.802472115
-1.692342281 1.359146476 2.161146879
-1.702217579 1.394459963 2.297035933
3.432344675 0.164285734 2.346683025
2.412796736 1.876529217 1.857252955
2.193830013 1.642199993 1.253067493
-7.321635723 4.826990604 0.022510827
-6.034424782 0.752171755 0.496003866
2.713159800 0.576481283 0.070605844
0.729185343 1.074876428 2.135214567
0.291928083 1.255358338 2.210256338
0.057138957 0.460913897 1.604625821
-0.935293674 1.368631482 1.919048548
-0.941361785 3.950569391 5.619909286
3.452708244 -6.918311596 15.415192604
4.193301678 -0.450055152 0.007248530
3.062687874 0.683392227 0.047309574
-0.213387281 1.683336020 2.812686205
5.247383595 -0.691150606 0.159301981
0.712866485 0.826902807 2.160427094
0.337527901 0.704448879 1.517559886
0.316162735 0.101190619 1.196828842
0.481044471 1.282305360 2.207841396
0.325654089 1.813076377 2.633826494
0.280413002 1.334744573 1.911230087
-0.355493963 1.464878678 2.569717884
-0.332601339 1.293163896 2.154429913
-0.516103506 1.678926349 2.322088957
-0.953045428 1.582289457 2.347217560
-4.603286266 3.932925940 6.391836166
2.899807453 1.483801842 2.143651009
0.129589930 1.241416574 2.405391216
3.370018482 -1.842757583 0.497359514
4.199727535 -3.045003891 3.131098747
-0.806262791 1.006751299 1.255761027
4.614154339 2.616728067 0.025426848
-0.023249147 1.900488019 2.692892313
2.848501682 1.702577472 1.967485428
0.111977078 1.681492805 2.546616077
3.505560398 0.196896493 0.155251637
4.269890308 0.469648063 0.044943027
-0.168297097 2.025324106 2.929234266
3.556193590 -1.981050014 2.121229172
3.144303083 -1.684582949 1.686753631
0.370515764 0.836979985 1.804813743
0.400300145 1.813552737 2.545015335
-0.041158676 0.121984631 0.273729950
5.096365929 -0.531206071 0.045062177
5.877210617 -1.123401165 0.144007504
5.339635849 -0.661299944 0.029764703
3.291918039 -0.598894596 0.165084645
3.041595936 2.329768896 0.041855209
3.738049507 2.635772228 0.294523448
4.495767117 3.472592354 2.782386541
0.230088905 1.750757456 3.029923677
-1.015867352 1.951964498 2.642765045
-1.321352482 1.311649680 1.695124030
2.623870134 1.349230051 1.923807621
1.394792557 1.486132503 1.519536853
3.908404827 -1.845212102 0.051792488
2.615489006 -0.321702659 0.074696273
-1.908079624 0.151239425 0.420396358
2.822278500 1.745534182 1.845103502
5.157266617 1.246803522 0.100635894
3.563343525 0.826130867 0.016722165
4.899583817 0.753830969 0.019719966
3.716086864 2.155692577 0.009355460
3.647423506 2.753159761 0.072964653
-0.083604321 1.637288809 2.536399603
2.478800297 -0.691701829 0.062237300
2.686261415 -1.184987903 1.565899491
2.779431343 -1.275502682 1.565442681
0.717145205 0.607255042 2.168961287
3.498133421 0.168095112 0.056258947
2.495060682 0.151015431 0.063191816
3.339022875 -0.517850339 0.128435552
0.791996896 0.737581253 2.310773373
-1.947723508 1.817162395 2.940361500
3.695168495 1.244366884 0.042400174
3.229558945 -0.649494767 0.157349855
4.153497696 -0.854433060 0.052740715
2.969463825 2.112180471 0.064573996
3.371683598 2.677405357 0.104042657
3.703472614 3.235513687 0.277906865
0.804462075 1.413655758 2.631479502
2.580389500 -0.358655900 0.062847160
2.729242325 -0.501978338 0.119935095
5.258327007 -0.958658457 0.112935252
-0.005484551 1.844364405 2.652694464
-0.479322046 1.785747409 2.491870165
3.237608671 -1.792267561 1.913991451
0.868276656 1.207421541 2.474926710
0.897528589 1.449489594 2.704320431
-2.048952579 1.620410800 0.953751802
3.901341677 2.946584463 0.219301268
-1.818316817 0.149155989 0.393205941
3.954500198 0.931881905 0.004590554
0.749035060 1.244332433 2.290893555
3.329900265 0.217986256 0.095053546
4.859318733 0.774149418 0.079837188
-3.638793707 1.937751174 2.555471659
3.691270828 -1.731758475 2.143579960
3.218878031 -0.889559627 0.130410939
0.270740181 1.602434278 2.692271948
5.585173130 -0.566869199 0.239839360
0.799281657 0.777291238 2.394930363
-0.878163159 1.830354452 2.579964638
4.197083473 -0.708874762 0.178271651
5.572260380 -0.998888016 0.070592433
2.127734423 -0.370013267 0.057508528
3.698405743 -0.473538727 0.169551253
4.876599789 0.664441526 0.069648661
2.760384560 -1.462389231 1.495552778
0.375112921 1.461421728 2.114688873
3.590076208 1.212755680 0.036663715
4.300631523 0.410846949 0.145770282
4.000720978 -0.830685973 0.044465538
3.384430170 2.987099648 0.098428398
6.031013966 4.372212887 3.500010014
0.575819492 1.297180295 2.291273594
4.274621964 -0.504859984 0.126220092
3.781194925 -0.412786514 0.190002382
2.687164783 -0.282001823 0.059819382
4.882344723 0.217009991 0.109868832
3.951888084 0.193401620 0.085195728
4.370320320 -0.620227456 0.189624622
5.813635826 0.734539866 0.112353407
4.296204090 -2.031032562 0.073297575
2.918054581 -1.344774365 0.062553540
2.616581202 0.145640984 1.832025290
3.234205008 -2.282256126 2.353651524
0.960964978 2.001621246 2.917731047
-1.829840899 0.295100540 2.428661108
4.474627495 -1.075640202 0.264416218
4.010677338 -0.983924091 0.219426155
3.863190174 -0.944776952 0.175660640
2.979848623 -0.728136241 0.120527387
3.319152832 -0.917828858 0.139620647
3.431778908 -1.570323944 0.229287282
4.165591240 1.833191752 0.001479218
2.765302896 0.155610368 1.945958257
3.607142210 -0.465002239 0.172403812
5.508356571 0.695942342 0.097754955
3.596638441 -0.397881091 0.185033068
0.839893520 0.810390234 2.426365137
0.288226426 0.016660782 0.010338753
1.989850879 -1.490239024 1.473410964
0.454045832 1.804986477 2.777500391
-1.393871069 2.504337788 3.636518717
0.829610109 1.437161684 2.699383020
1.469560623 1.599375844 1.672295809
3.840341330 0.298611492 0.096399136
4.677443981 -0.555014670 0.123484358
3.980604172 -0.454425275 0.081036933
5.015205860 0.958419979 0.187666729
4.375327587 -0.916238368 0.024782779
4.626054764 -0.668760717 0.165902898
3.553611994 -1.693946838 0.036627624
3.857836723 3.103712320 0.091361649
0.516577721 -0.583915651 1.632222772
-1.433951378 2.580121040 3.544555664
-1.994570255 0.328501761 2.660946846
0.703311980 -0.745726228 2.122992992
3.265043497 2.293655157 0.052606974
3.925986052 0.165492892 0.161507711
3.122203827 0.731332958 0.040549114
3.231451273 2.448806047 0.204559535
1.956743598 -1.492105246 1.455267787
3.656078100 2.935058832 0.054620843
0.163948521 -0.175486758 0.891200483
4.081395149 0.988525212 0.061014671
-1.838413835 0.652156830 2.474542618
-0.455846876 2.389943361 4.681577682
0.347032100 -0.218045205 1.278330207
-7.199295521 0.565014899 10.052273750
3.578438759 -0.418529898 0.142953560
-0.842043161 0.918640554 1.338631034
-1.478426933 0.875203609 2.109932423
0.277721196 0.263058096 0.978838801
1.308753133 -0.199792400 5.125353813
-2.479696512 0.073715724 4.053092003
-1.391506433 0.990172923 1.874860168
6.077146053 1.024134398 0.142472371
-0.751798451 2.907957792 4.470946789
-1.766293526 1.737821460 2.357167721
2.765922308 -2.213326216 2.223359346
0.832467020 1.554864407 2.500567436
0.398199916 1.643774867 2.419072866
7.514029026 1.128279328 0.016133396
-2.599365234 2.240277290 3.551920652
3.202875853 -1.512088418 1.805706978
0.489026695 1.964009643 2.849366903
0.492055535 0.777240634 1.707338333
-2.454163790 2.281498194 3.166617155
-0.013785508 0.072233483 0.397576302
0.481823772 1.147690535 1.868432045
-1.857175946 2.385382652 3.153172255
-2.478918552 1.990468383 1.182987094
0.919439912 1.883405685 2.969637871
-0.354372770 0.825679064 1.186141372
-0.729871869 0.145955235 0.949273527
-0.567191362 -0.558617234 0.979124069
-0.589765847 -0.035861552 0.768774986
-0.604185760 -0.376842886 0.837902784
-0.475322336 1.362036824 2.574035645
-0.607581556 -0.035796646 0.796950579
-0.401994795 -0.204672962 0.671516776
-0.622525156 0.586006045 1.328270078
-0.743837595 0.365727395 0.976142108
4.615412235 -4.987560272 4.718955040
-0.632507205 -0.395047098 0.877359688
-0.499787420 -0.062219735 0.707649231
-0.421858102 -0.237878814 0.669279039
-0.402070493 -0.057360075 0.676623106
-0.657388330 0.143182516 0.858869731
18.890441895 -3.861695528 0.276238859
-0.547716498 0.162055507 0.766954303
3.770172119 -4.048514366 3.842264891
-0.490092903 -0.203894183 0.703154445
-0.169086397 0.006497534 0.424815685
-0.260991454 0.054659121 0.535372615
-0.547795117 0.003282001 0.770982802
-0.513622701 0.018254844 0.761399567
-0.186918259 -0.040231287 0.452386707
-0.118284650 -0.011306762 0.336588234
3.808384895 -4.098679543 3.930508137
0.332564205 0.022203639 0.011568354
-2.008994341 -2.504338741 2.884179831
-0.380032063 -0.319908261 0.721097648
-4.363891602 -1.725178361 0.968227267
-0.372922838 0.038982388 0.556707740
-4.747184277 -3.631088972 2.338201046
-4.309744358 2.298660278 3.040964842
-1.465695977 -1.939288616 2.145480394
-5.064819813 -3.870328426 2.493832827
-0.493607312 -0.003725169 0.647280276
-0.300976336 -0.097116970 0.519831717
-5.502372265 -2.084059000 1.284600616
3.270833492 2.284932137 0.254983366
-0.640271604 -0.422644019 0.979830921
-2.856183767 -1.899686694 1.143903971
-1.597878098 -1.951550841 2.243057728
-8.536529541 -3.645944357 2.012677670
-0.964647472 -0.777495265 1.307140470
-1.944349647 -1.655370831 2.844459534
-0.761963725 -0.456737638 1.053305268
-0.634882450 -0.225256279 0.866445959
-0.383476883 -0.268068701 0.945042908
-0.061982322 -0.016504826 0.206733853
-0.670687020 -0.209797576 0.887087464
-0.503390849 -0.106196262 0.770578265
-3.402309179 2.315493107 0.082489461
-0.731873274 -0.013817316 0.953793585
-0.585615039 -0.011916332 0.961243451
-0.636346757 0.095587648 1.021243215
-0.840605795 0.109033450 1.236235142
-1.591083169 -0.588675499 2.132291555
-1.275304556 0.957551062 1.624904275
-0.192182645 0.022351129 0.458737344
-0.720531881 0.100866877 1.050557017
-0.960719407 -0.047418691 1.252339005
-0.214803070 0.050913882 0.494484305
-0.681889296 0.010780325 1.016003489
-4.732432842 0.576229513 0.358636498
-0.158934876 0.049388777 0.386409074
-0.166220292 0.076125138 0.411404610
-0.349010676 0.097672321 0.678420305
-0.157322049 0.076528266 0.444884360
-1.102505684 0.373575121 1.617190242
-1.038368106 0.354938537 1.501341581
-0.831809223 0.070060521 1.198890328
-0.144758731 -0.033738110 0.294663936
-1.866952777 2.001928568 2.052114248
-1.250685811 -0.549396276 0.285809904
-0.926213682 -0.746781349 0.503281772
-2.132363319 -1.575733662 1.038758516
1.467558622 -2.524540186 2.233209610
0.207219586 0.561627328 1.567467928
-1.592776299 -0.641238391 0.401068449
-1.362621903 -0.515881836 0.345664591
-1.018271685 -1.193338513 0.870245934
-1.352272391 -0.525936306 0.319401473
2.411041021 -5.270871162 4.884607792
-1.586919546 -0.937159240 0.576661646
-0.978457808 -1.148674965 0.837011695
1.165986061 -2.910313845 2.477584362
0.104517207 0.087707236 0.527814984
-1.002863288 -1.650981665 1.264229298
2.020566940 -2.226510048 2.155187130
1.731842995 -1.944206953 1.889431834
0.447291285 -1.208350658 1.073445797
-1.165112853 -0.552667975 0.270476371
-0.866132677 -0.905662715 0.638982475
-1.749277592 -0.825868309 0.405769378
0.584018648 -1.786880851 1.638417840
-2.575099230 -1.651318073 1.020691633
-1.070142269 1.559372663 1.655345917
0.053585693 -0.048309740 0.415074468
-0.155275747 0.225803018 0.562277853
0.035507735 1.465871096 1.627825260
0.046580534 -0.038177304 0.393390179
0.061674047 0.205934003 0.538487434
-0.123066790 -0.046230886 0.027737679
-3.139520407 0.277093530 0.681933165
-0.528353453 -0.641202629 0.748115957
-0.556479394 -0.674145937 0.787180066
0.165985599 -0.306708038 0.685740948
-0.044713110 0.284972727 0.558331668
0.027828235 0.187538370 0.420547873
0.160140455 -0.328064322 0.691794097
0.850653529 0.545220912 4.352506161
0.584317267 -0.197895989 2.187225103
-0.162024096 -0.319110364 0.850362778
-0.107004158 0.085302621 0.874990821
-0.279901683 -0.212902829 0.529722214
-0.284419715 -0.219515443 0.541617155
-0.095110133 -0.098487288 0.069831699
-0.205657274 0.499742091 0.856211483
-0.016030284 0.225358695 0.477165252
-0.159731075 0.260466546 0.575538695
-0.138276994 0.412346035 0.727275848
-0.150996998 0.109834090 0.282417059
3.757689476 2.891919374 0.304532111
-0.093705490 -0.173405573 0.460444689
-0.185012177 0.223980114 0.795134962
-0.178745314 0.219281480 0.774242640
-0.039116591 -0.117148481 0.136690646
-2.569411039 0.240169644 0.257809997
-5.302511692 4.440381527 15.331318855
-0.115303800 -0.189223677 0.550301075
-0.507642150 0.440411210 1.441209078
-0.091302849 -0.183972448 0.525718272
-0.075730257 0.020541420 0.330450416
0.059122238 0.129682288 0.194950432
-0.121964917 -0.287572682 0.742182732
-0.077554569 0.044223409 0.358684391
-7.015273094 5.142046452 5.364825249
-0.158706173 -0.348370194 0.891287863
-0.147366032 -0.089114636 0.054600019
-0.243544400 0.099305563 0.717210531
-0.684465945 -0.228762999 1.527610421
-0.342352480 0.117224105 0.832145095
-0.298766822 0.055207498 0.657974064
-0.418866426 0.028893417 1.003915071
-0.512912154 0.108381137 1.054310441
-0.477638900 2.536328554 2.680119276
-0.165259108 -0.214669764 0.702083290
-1.726033568 0.135833815 0.375438988
-2.297466755 1.808547974 1.057966828
1.012421131 -0.592872977 0.116808765
0.219586119 2.175856352 2.321009636
2.512779951 3.058868408 0.315303594
-0.301909417 0.081762336 0.748449385
5.979282856 1.426909328 0.109542556
1.703937411 1.274347425 1.042279363
-0.687375486 0.428071946 0.984575808
0.083446153 0.272969723 0.713422000
0.429091752 0.022539241 0.009628661
0.337546647 0.017640090 0.007110970
-0.060059354 0.070092969 0.386796325
0.223501921 0.212845653 0.958398283
-0.147484243 -0.107054576 0.323630214
0.034201123 0.361840129 0.642548800
2.861588717 2.545442104 0.110374309
0.384798110 -0.111027919 0.005094502
-0.203863040 -0.233122513 0.655880809
-0.364391357 0.286317825 0.229058191
-0.542847812 0.012869440 1.264476538
-1.647591352 0.734050810 2.645036697
-1.292212367 1.024203539 0.614533305
0.266528457 0.075127207 1.177209854
0.061745767 0.424465388 1.603951097
-3.326797247 2.560623169 2.106845856
-0.115763687 0.279172838 0.986967921
-1.287378311 -0.680386186 0.413887322
-0.055263761 0.456369102 0.800124347
0.083061248 0.035518091 0.727556050
-2.964524269 2.193672419 1.737713575
-0.278213620 0.027933473 0.028151214
-0.280822694 0.027347386 0.028404422
-0.278436601 0.029166788 0.028188875
-0.418582559 0.738048196 1.785555720
-0.110069081 0.043083522 0.308052719
0.180174500 0.014870589 0.131725132
-0.390433431 0.302680850 0.312669903
-1.772210836 0.144276589 0.385576576
-0.087865382 -0.263511270 0.818837762
-1.195751786 0.861569703 0.694329381
-0.838746905 0.838800848 1.077018261
-0.788634121 0.790961683 1.014051557
0.055795345 0.257002473 0.674783707
-0.238425523 0.020635843 0.168934911
-0.124588117 0.090846293 0.427696198
0.343993634 0.025268953 1.230789065
0.178941101 0.367462993 1.271894813
-0.310298294 -0.276115954 0.227435902
2.654423952 2.362287045 0.078261502
0.218847066 0.321612090 0.869031787
-0.303851664 -0.272821158 0.223579884
0.052026305 0.096002646 0.447017312
-0.271806479 -0.462983727 0.437881917
2.679774284 2.062714815 1.654935837
0.211129516 -0.079873040 0.013609868
-0.291907281 0.028964184 0.030892823
-0.190658703 0.178011358 0.926230013
-0.105861127 0.209103853 0.446263522
-1.196578145 0.330788255 0.872301579
-0.131153658 0.199825868 0.649605989
-1.551205873 0.092766218 0.351332068
0.996504486 -1.040859818 1.013056993
2.969033003 5.375485897 6.030059814
0.080115944 -0.022346640 0.406184614
1.722525477 -2.352950096 2.189664841
-0.097544946 0.133987874 0.200015903
0.127212644 0.593897045 1.817263722
-0.291353673 0.293555766 0.378335148
2.441762447 -2.726429701 2.659861088
6.842895985 2.028041363 0.133486196
-0.146577567 0.002760406 0.213979155
-0.165704295 -0.061815634 0.038262121
-0.210092023 -0.193746582 0.357945442
2.347883940 -2.309983730 2.252435684
-0.235076487 -0.183989421 0.353307068
2.237660408 -2.667725325 2.566256046
-0.044362608 -0.970672846 1.164624333
2.320646286 0.217134371 0.073179461
3.109626532 0.406024516 0.094520934
-0.282236874 0.148468927 0.364528239
1.121465087 -1.647722960 1.752077818
-0.309472471 -0.256545573 0.442558914
-0.248689190 -0.210846633 0.408942789
-0.254553437 0.002429776 0.357881397
-0.060926355 -0.127185836 0.328323334
-0.322353035 0.255668253 0.804516256
4.943576336 1.176799059 0.046089746
5.158635139 0.573306084 0.028039757
3.088431120 1.370108724 0.033646826
-0.202156872 0.138414443 0.253443241
4.508227825 -0.010380264 0.133848622
-0.177006468 -0.145413011 0.286447912
8.891089439 -2.224254131 0.152176797
-0.073480390 0.216219485 0.645746827
1.017061949 2.516071081 2.764717102
-0.054818008 0.350252718 0.780866504
-0.174213409 -0.088684544 0.246090546
-0.093397640 0.017069990 0.352926344
-0.342918754 0.778919458 1.326879740
-0.180645853 -0.090824299 0.254018962
6.667029858 1.121689200 0.017664371
0.289791167 2.008883953 2.225288391
-1.331966996 -1.175983906 0.699348271
3.681989431 2.439519167 0.289182514
1.980446815 1.517084599 0.092214480
-0.168217093 -0.283831775 0.833937645
-0.952854931 -0.736542702 1.320724368
2.844093084 2.043367147 0.063596502
0.304816931 -0.068662047 0.012198778
0.727186739 -0.123076618 0.031088125
3.357199669 0.465671331 0.041878544
-0.640484750 -0.553329110 1.057892680
-0.291113377 -0.110012390 0.638450682
-0.191369325 0.424317151 1.116344571
-0.193581164 0.073724769 0.852867544
0.320916474 -0.176445693 0.042818196
0.294122905 -0.047368802 0.004902829
0.324909627 -0.144868702 0.016997585
0.324289918 -0.144258961 0.016958596
-2.516242981 1.504173756 1.573066354
0.220710099 0.084082261 0.637752891
1.958393335 0.998231828 0.001356721
1.116438270 -1.086439252 3.259511948
0.602980256 -1.097708941 2.338261127
-0.090219632 -0.219445094 0.639208972
0.337499410 -0.091568217 0.016190995
0.381847411 -0.184570223 0.006859914
0.547261775 1.202127934 1.170136571
0.451890558 -1.281523347 1.124833584
0.490912706 -1.103466749 1.022807121
0.372330159 -0.045015376 0.017203363
0.245243564 -0.045933612 0.134718075
0.620358527 0.037800819 0.012665709
-0.793687880 2.944638252 4.028378010
-0.159295037 0.255462885 0.736846447
-0.291269332 0.666949689 1.152532220
0.402595282 0.334032625 0.222017884
-0.051574986 0.219224423 0.302043945
0.063448690 0.188445628 0.295753300
2.277470589 1.719310880 0.000097155
0.544066310 0.771331429 0.770726919
0.545580685 0.782819629 0.778915465
0.532784343 1.017528415 1.027598262
2.666997433 1.898309827 0.165326074
-1.065755844 0.075131878 0.357326478
-0.365016252 0.265810072 0.491447568
-0.056365766 0.038803469 0.409862041
-0.078828491 0.082534224 0.110076569
-0.152552783 0.069339603 0.349150777
-0.228920639 -0.149548382 0.546549916
-1.085648537 0.855127692 0.514200866
-0.599882364 0.744140625 1.208262682
-0.387746572 -0.454214126 0.331150621
-0.349665552 -0.449014813 0.334026486
1.547806144 4.701103210 5.258759499
-0.281353116 -0.242969662 0.697055459
2.045351028 5.970384121 6.761180878
-0.487218559 -0.400885493 0.994635940
0.294045627 0.608507633 1.330912232
-0.326660126 -0.226701722 0.692443490
-0.735105038 -0.351292223 1.206256509
2.351635933 1.824883819 1.889615178
-0.301270783 -0.255605936 0.742820442
-1.195119500 0.860936761 0.693911970
-0.271070808 -0.215722561 0.512140810
-0.306074917 0.029372429 0.042512890
2.914118528 1.504988790 2.127779484
0.241395369 1.786372900 1.913804412
-1.686602592 -0.987437904 2.349597931
-0.347226560 0.044454124 0.482451916
-0.251849562 -0.628283322 1.751672745
-15.340084076 10.071210861 0.097484134
-0.251300335 0.240047202 0.930179119
-0.619365454 -0.476064622 1.236224890
3.391990185 1.703108072 2.485547543
-0.157772884 -0.101187274 0.340394497
0.072557658 -0.129549757 0.120889120
-0.436457545 -0.266024739 0.896972179
1.649832964 3.645115376 4.136907101
-0.541253626 0.979896247 2.171929836
0.424715757 0.981688261 1.199631572
0.741911352 2.806712389 3.072409868
-0.088901363 -0.149605021 0.671456277
-4.135527134 3.600427151 5.727648735
