-8.579325676 6.630191803 6.878105164
-4.446854591 -0.044916432 5.979322433
1.448534608 -3.860595942 4.909586906
-0.987970889 1.163369775 4.180589199
-0.809446096 0.681457162 3.242898941
-1.102372885 0.989004314 3.255784988
-1.363339186 1.321092010 4.030579567
-1.927889943 2.046782255 4.451434612
-2.175240278 3.004260778 4.963963032
-2.416809320 -0.915834427 5.890071869
-1.425326586 2.668194532 3.571443796
-2.826820612 1.254171610 4.406896591
-4.819688320 -2.262262106 7.658537865
-4.647383213 -2.289544344 7.821228504
-3.317940950 2.423155308 4.996914864
-6.899249077 3.264636278 9.126228333
-8.562254906 -4.445904732 11.899921417
-3.344485998 -0.614666641 5.144344330
-4.143555641 1.928646207 5.243856907
-12.381886482 7.507201672 8.077243805
0.830772281 1.613805056 2.495970726
1.103180170 2.096627235 3.166953087
0.903957069 1.400079846 2.777022362
1.137855411 1.656797171 3.266897917
1.131933928 1.303120852 3.684955120
1.210685968 1.166485429 3.501203537
1.095890284 1.526566505 3.168902874
1.115320921 1.463273525 3.899593115
0.746304214 -0.385088056 3.499433994
1.088587284 -2.117623806 4.752379894
0.802081525 0.924905419 3.621601582
0.663859367 1.187109113 3.027959585
0.786310732 1.546512246 3.606609106
0.327045500 0.329220772 3.195129871
0.386171877 1.620626092 3.580508947
0.419395864 1.590459585 2.939430237
0.372277319 1.882393003 3.177001238
0.236457542 -0.367812157 2.555861235
-0.146155775 2.051766396 3.771840572
-0.266139269 2.059139252 4.621338367
-0.396338969 -0.027555024 2.721677303
-0.509739459 -1.211737752 4.328783035
-0.397570968 -0.992041469 3.916751623
-0.560281575 2.481925726 3.656148195
-0.814986348 -2.087373972 5.762150288
-1.128785372 0.477896482 4.887450218
-1.267459631 -0.351031065 4.203915119
-1.344611406 -0.234932005 4.094347000
-1.190719247 -1.188860774 4.152119637
-1.270013094 -0.174490675 3.935433865
-2.307337999 -1.781802297 5.748155117
-1.693292618 2.570830345 3.838373423
-1.883138537 3.160121918 4.593539715
-2.270767689 3.041686296 4.181551933
-1.875723839 0.388231993 4.024696827
-2.344967604 2.689707518 3.781695843
-2.521765709 3.115879536 4.383990765
-1.545337677 0.208321691 3.195544481
-3.865167618 3.411367178 5.625928402
-3.078440905 2.413194895 4.084237099
-2.778491259 2.368789434 3.864509583
-4.678714275 -0.339175910 6.626077652
-4.542548656 -0.176843733 6.302758694
-5.222205162 -2.408376217 7.742324352
-0.130049393 -1.612795234 4.552685738
-0.020943899 -0.969967365 2.873236895
-0.290918529 1.455068946 3.443536997
0.717248559 0.728292108 2.379619360
1.117366791 1.075984240 3.445733070
0.770208776 0.794019282 2.455447912
1.768450379 1.786494255 5.480089664
-0.560283661 -1.128950477 3.053395510
-1.070761800 1.070573330 4.251520157
-0.850458622 0.091629758 2.987113714
-0.846012235 0.122096926 2.972266674
-2.068539619 0.163103774 4.387973785
-2.905347824 -2.183640718 5.761018276
-2.896895885 -2.021102190 5.472963810
-3.277658939 1.139419079 4.873494625
-4.159173965 1.457821488 5.964244366
-3.172808409 1.167277813 4.761725903
3.387839317 -1.839326739 1.996946812
0.926755190 -0.610138774 2.874193668
0.847078323 -0.507957637 2.623952389
0.970424712 2.044995308 3.423586130
0.711293697 -0.835706830 3.094574690
1.064671516 0.892765462 4.151292324
0.965782523 0.923472643 4.151046276
0.714038789 -0.919911027 3.058935881
0.825433373 -0.993524134 3.233858824
0.770772398 -0.917762876 3.197852135
0.567365706 2.148585320 3.087451935
0.612509668 0.532432199 3.335491657
0.605889320 0.611146808 3.492363930
0.525596976 1.756895065 4.324136257
0.335044920 1.480997324 3.607905865
0.234004602 -0.997544706 3.567278862
0.014390751 0.536580861 3.190318584
-0.041573051 1.678131819 3.445107698
-0.202541634 -0.990384102 3.298938751
-0.297088534 2.522526979 4.127270222
-0.460420758 1.473394871 3.626889706
-0.696798086 0.010925538 3.366166830
-0.845105648 2.175692797 3.898037910
-1.227737427 2.148619652 4.858992577
-1.077794313 0.226265952 4.085717678
-0.940752089 0.248171329 3.792672396
-0.832058132 -0.388357610 2.905775070
-1.006947517 -0.412020922 3.277262688
-1.421001792 0.453585118 4.637341976
-1.398221493 1.001136541 4.755247116
-1.649239063 1.417558193 4.361328602
-1.906508088 -1.784662127 4.977487564
-2.000329971 -2.195036888 5.513103962
-2.791210651 -2.791324854 7.399115086
-2.737048626 -2.862809181 7.613747120
-2.458386183 -0.464445740 5.554834366
-2.183231831 -0.592298448 4.551217556
-3.265015364 -0.926639616 7.168673515
-2.226202488 2.677124023 4.344328403
-1.934395075 2.359793425 3.723818064
-2.319454193 1.514445543 4.012134075
-3.295935869 3.195787907 5.170084000
-3.181688786 1.016102552 5.379400730
-3.668558836 3.364132881 5.440254688
-3.622379541 1.289156675 5.675007820
-5.540497780 -2.978057146 8.834469795
-4.404735565 0.472440153 7.180692196
-3.476930380 0.119396165 5.370659351
-3.339982510 -0.544909418 5.030375481
-4.942130089 4.896763802 6.598464489
-7.016939640 1.570698738 9.353810310
-3.171140194 0.709773958 4.050984383
1.011558414 0.440490246 3.127650738
0.659822583 -0.378189057 2.166190147
1.008757830 -0.998787999 3.118479252
0.874987602 -0.023494504 2.855056763
0.853551805 1.776405811 2.574296951
1.127345443 2.197753906 3.211560249
0.843849242 -0.941945195 2.625482082
1.144552469 0.674284041 3.760169744
1.194884181 1.138349891 3.917181492
1.059961438 0.952199996 3.250060081
0.897881508 -2.090237141 2.851751804
1.174693704 -2.600344896 3.532494068
0.901766479 1.333501339 3.313085794
0.795006990 1.102314711 2.737355471
1.242287636 0.321302503 4.519399643
1.195521712 0.375353485 4.616609097
0.859482884 0.779127479 3.012793303
0.999604583 2.172311068 3.270941019
0.954445302 0.735218823 3.347138166
0.919861615 0.837487459 3.482761145
0.991779745 0.817944765 3.470409632
0.997224808 1.529661775 3.485433102
1.092869401 1.662294745 3.578560352
0.821535826 -0.488901377 3.584848166
0.825902760 -0.425660938 3.440960407
0.857926011 0.173249960 3.774866343
1.005019784 0.181103319 3.963953495
0.881673515 1.441204906 3.438266277
0.854312241 0.775524557 3.378431559
0.884994447 0.893909872 3.565148830
0.789061487 1.818524003 3.160254478
0.778389335 2.014790535 3.314299107
0.667909384 1.880858541 3.004254818
0.750636697 1.479329109 4.156175137
0.604309320 2.003036976 3.105164289
0.640656829 2.022434711 3.096833467
0.814723015 -1.576373935 4.552302361
0.511940122 0.946931303 3.198390245
0.487308770 -1.072857141 3.061262846
0.564091444 1.906681299 3.559623241
0.533064544 2.105635405 3.202959776
0.443728298 1.622421384 4.236182690
0.537664950 -1.446523547 5.180062771
0.322225839 -0.760428667 2.716808796
0.388677597 0.180469498 3.664343119
0.315699607 -0.392217636 2.936202049
0.245191857 -0.249661788 2.008999825
0.270709217 -0.858568847 3.024618149
0.408586025 1.811942458 4.744489193
0.315357506 2.389034510 4.285063744
0.296640128 1.827789426 3.276265621
0.261856019 2.093489408 3.465784788
0.315400362 2.063802958 3.414040089
0.394942313 1.006110787 5.052733421
0.464269251 0.989404738 4.968030930
0.312379241 1.319333196 5.869552135
0.181018829 0.861966312 3.503751993
0.201272562 1.728981733 3.937235355
0.046135709 1.328749418 3.647423029
0.098541543 1.774877787 3.382749557
0.049825806 -0.769762993 3.416517258
-0.038955308 1.022711396 3.365901470
-0.146821663 2.746718407 4.121964455
-0.161717296 -0.906666219 3.192392111
-0.158586547 2.277727127 4.733705997
-0.121057242 1.828286290 3.614211321
-0.249615654 1.860219836 4.536239624
-0.238108993 2.077583790 3.287650585
-0.268075615 0.843580246 3.284983873
-0.369771063 1.447160125 5.422928810
-0.065767780 -0.100328833 1.066568494
-0.237916678 0.608749330 2.902354479
-0.183283433 0.178526908 2.267797470
-0.324521065 0.304413855 2.930631638
-0.261246920 0.283968359 2.734721899
-0.547763705 1.004168272 4.895860195
-0.441033512 0.935169041 4.225742340
-0.393582225 1.459022522 3.544947386
-0.330495566 1.449079037 3.475247145
-0.335707396 0.774456084 3.281295776
-0.405711472 0.966046512 3.605617046
-0.356816620 0.282465428 3.304612398
-0.407772064 1.615645766 3.663414478
-0.362396657 1.587581873 3.602509975
-0.340402126 -1.056441903 3.275948763
-0.621335030 2.030180693 3.613532305
-0.601161301 -1.169613361 3.351656437
-1.086712360 1.773828983 5.096101761
-0.612027764 -0.771396399 3.309838295
-0.758623123 2.692899704 3.693740606
-0.729363143 0.578455567 3.494062662
-0.634489655 0.542812824 3.284272909
-0.871692300 2.372433186 4.461094856
-1.024390936 0.695365250 4.940178394
-0.630465448 0.469169080 3.311467648
-1.058336496 0.929691374 5.100799084
-0.927807450 0.879102826 4.834537983
-0.914654195 2.180012941 3.749269009
-0.928013027 0.821948826 3.945213318
-0.939176023 0.894857764 3.989306211
-0.833623409 0.159931570 3.584917307
-1.103037357 0.333430916 4.100181580
-1.233585835 1.741308212 4.378311157
-1.125629306 1.707569361 4.242878437
-1.230870366 2.389435530 4.068770409
-1.034197927 2.258898973 3.870526075
-1.068423033 -0.591480017 4.286992073
-0.653901696 -0.317000836 2.573370218
-0.724130869 -0.420124829 2.667268991
-2.015294790 -2.372156382 7.213963509
-0.881452024 -1.089362383 3.436840534
-1.265314937 2.598522186 3.724761009
-1.176499128 2.438621283 3.410436869
-1.238518238 0.354981303 4.346613884
-1.473422885 0.270331711 4.809946060
-1.105525851 0.884719670 3.700573683
-1.181787491 0.955034137 3.811853170
-2.679797411 -2.985281467 7.972784519
-1.291967273 2.128135920 3.807122946
-1.346248865 1.480237484 4.023517132
-1.415986061 1.508205891 3.981753826
-1.488489866 0.522538900 4.233419418
-1.694438338 1.533532381 4.397002697
-1.311882257 2.283945084 3.309880972
-1.886856914 3.279809475 4.561009407
-1.559731722 2.199720860 4.038437366
-1.794997096 2.516528368 4.412542820
-1.527807951 -1.035302877 3.724553585
-1.684016228 -0.452607363 3.901723862
-1.734336257 -0.588538647 4.122610092
-2.746212959 -0.836452842 6.353894711
-2.322848797 1.395341277 5.215767860
-2.228611708 -1.351788640 5.063221455
-1.713256359 1.654152036 3.831566334
-1.533642054 0.288243532 3.509612560
-2.265310287 0.449934423 5.407629013
-1.730981469 0.229281351 3.971483946
-1.229109168 0.152840823 2.899259806
-2.115766048 2.191140652 4.605350018
-2.018403530 2.142028809 4.517364502
-2.725137949 -2.026333332 6.029541969
-2.136048079 2.693809509 4.439816952
-1.907365322 2.442737103 4.112262726
-1.951989770 1.826412916 3.977592707
-1.939201355 1.883470654 3.934056997
-1.833293676 0.215808660 4.095800877
-1.905079365 -0.425185382 4.025788784
-3.186355352 -2.007334232 6.846740246
-2.016605616 1.139198422 4.192212105
-3.090137720 -1.250082970 6.004790783
-2.240380049 1.064019442 4.446197510
-2.156075478 2.668341637 3.617713213
-1.788856387 2.358091354 3.105957031
-1.951371193 1.306898236 3.657326937
-2.364022970 1.666924834 4.461045742
-2.709100723 2.780530453 4.836309910
-2.092786074 -0.439222991 4.260665417
-2.399524927 0.829696596 4.389395237
-2.577440739 0.903440654 4.899783134
-2.611779690 2.240718126 4.462910652
-3.438062429 -1.217731833 5.929665089
-3.024578571 1.798870802 5.029265404
-5.797996521 -4.543004990 8.999963760
-3.319557428 -0.724437892 5.330317497
-4.397088528 2.827771425 6.739692688
-3.476874590 -1.851502061 4.947072983
-4.609387875 -2.392096043 6.800605774
-3.300763369 1.241747260 4.787436485
-3.842209816 1.520264626 5.544056892
-3.127047539 0.977200329 4.553391457
-5.031982899 1.657474399 7.244760990
-5.732899189 -1.177230954 8.615930557
-3.151644945 1.945783615 4.405807018
-3.074309587 1.875742912 4.405793190
-6.600625515 -1.606477857 9.681684494
-3.803544998 -0.963803470 5.828357220
-3.075968742 0.356335759 4.638614178
-4.439033508 0.616073906 6.544681549
-3.510797024 2.348278284 4.556086540
-3.118121862 2.157549858 4.195474625
-8.101938248 -2.402430296 11.576489449
-4.402485371 -1.190322995 6.237571716
-4.456874371 -2.388912916 5.956510544
-3.632747173 0.196886778 5.200196266
-4.993230820 -1.635792375 7.037947178
-3.542117834 0.250402421 5.068880558
-4.998887539 0.476768464 7.224707603
-3.552576065 0.645269871 4.557504654
-4.331157207 1.847105145 5.515030861
-4.190068722 1.759932637 5.518702984
-4.839486599 -0.279371232 6.572669029
-4.861989021 -0.138417959 6.337125778
0.838902891 0.136442289 2.942080736
0.865300119 0.171997070 3.034772635
0.975118160 0.316873789 3.418685198
1.258245587 0.123468995 4.504014492
0.980964601 0.115028732 3.789944410
0.491558999 -0.868963659 2.680122614
0.461703986 2.255162001 3.329115391
0.151777700 -0.268177152 2.088459253
0.179286599 -0.667595804 2.597589016
0.238821968 1.442974210 3.620090246
0.191101015 1.478294611 3.602036238
0.064272776 2.021410465 3.067827225
-0.037009798 -1.700170159 4.800073147
-0.054266647 0.638399661 3.476960182
-0.233266458 1.384935021 3.277455807
-0.278875411 -1.178703427 3.729746819
-0.365863711 2.281491041 3.527518749
-0.262502849 0.114911422 2.526089430
-0.395640850 1.464309692 3.150341988
-0.418876261 1.745812535 3.754000664
-0.445935249 2.128794193 3.470347404
-0.401049763 2.096955061 3.421470404
-0.671328425 2.371206045 4.269784451
-0.427931517 0.014769414 2.845506430
-0.882896841 2.481356144 4.500504017
-1.034804106 -1.098238707 4.000000000
-1.276296854 0.450983882 4.396243095
-0.834427476 0.309526920 2.991979361
-1.000124812 0.806387067 3.544710159
-0.896418512 0.083388552 2.921203136
-1.814306974 0.097925752 4.344324112
-2.595254183 3.470909119 5.211006165
-2.479125500 3.427343845 5.106222153
-2.741586685 1.283378363 5.875455379
-1.874277234 0.926420212 4.128023148
-2.587029934 2.266034365 5.106850624
-2.733617306 -0.010800236 5.062404633
-2.490439892 0.604440451 4.182137012
-3.101732254 1.999880075 4.940110683
-4.345467567 3.020481586 6.444658756
-7.190633774 -3.596920967 10.879332542
-3.004586220 -1.482619762 4.642929077
-3.142406940 0.330136448 4.902420044
-4.031353951 3.949331760 5.162390709
0.154047236 -1.744842052 4.919427395
0.067107387 -1.814683318 5.123431206
-0.040666077 -1.911378264 5.075160027
-3.469453096 3.338685274 5.231115341
-2.507739782 1.913805366 3.909106016
-1.371792793 1.985743999 4.564587116
-4.135527134 3.600427151 5.727648735
0.213801816 0.388459265 3.982890606
-1.311582923 2.553776741 4.141927242
-1.361156583 0.218164831 5.177977085
-2.393893480 1.288252234 4.768833637
-6.016778469 3.134699821 8.263494492
1.745049477 -2.817919970 2.662638664
0.884936631 -0.776420414 3.285744667
0.909321904 -1.623818398 3.641649961
0.940503001 -1.199032664 2.735984564
-1.989762783 -2.109410048 6.743826866
-0.982246935 -0.313846260 3.641910076
-3.270339489 -2.409537077 5.903529644
-0.061703861 1.401702762 3.848023891
-3.960255146 3.619154215 5.496799469
-3.340334892 3.372964382 5.049435139
1.395736575 1.247539282 4.073653698
1.092472076 0.821847796 4.010572433
-0.059929963 2.133775711 3.203147650
-0.075236872 2.921343803 4.112649918
0.041414727 2.823501825 3.975643635
-1.827829480 0.299683809 4.028198242
-2.319811821 2.065286636 4.908987999
-2.107999563 1.966755271 4.747327805
-2.555980921 1.805462718 4.021701336
0.393736362 1.263828516 5.128901482
0.197734684 1.047147155 4.009710312
-1.157892227 1.950069547 4.327884197
-1.418079019 2.403868914 5.131145954
-1.011951447 0.134911403 3.249295712
-1.591613770 2.141409874 4.075819492
-1.842848063 0.809643865 3.798283100
-1.664046645 0.830036163 3.926940203
-2.339388847 1.247012138 5.347498417
-2.836926937 3.325825453 5.585423946
-2.650483608 0.417035371 4.262889385
-3.337266922 -1.809540987 5.590931892
1.655431390 -0.841839671 4.911566257
0.983811319 -0.477883875 3.015625000
1.407472253 -1.598309040 4.754204273
0.753753781 -0.830937326 2.762966633
0.768711805 -0.369786978 2.722430468
0.934549272 -0.432235539 3.907187700
0.646180630 -0.241922840 2.255455256
0.737849176 -1.274154067 3.718276978
0.607504010 1.841174364 3.473085642
0.223492667 2.080204010 3.484320164
0.144116089 1.884889722 2.954550743
0.362186670 2.184562445 3.454120159
0.271282703 -0.690073967 2.863361359
0.173138916 1.978562951 3.513212919
0.166559219 2.080434799 3.526213169
0.338793576 1.910836577 3.306164742
-0.139448479 -0.739260137 2.934351683
-0.575971842 1.119877815 4.613375187
-0.475132585 2.238590240 3.527391911
-0.628274083 2.136626959 3.131934166
-0.650523782 2.734470844 3.770275116
-0.971829474 1.078675508 4.117714882
-1.294396877 -1.358317733 3.799839258
-1.486914158 1.364901662 3.661393166
-3.622418642 -0.554168701 5.229009628
-3.635923624 -2.066632032 5.172905445
0.803656757 -0.776833177 2.842846632
0.797992468 -0.283534527 2.950971365
0.836465359 -0.217002153 3.097984791
0.838087022 2.058814287 3.302781582
0.992405355 2.062376022 3.207090378
0.884415329 0.377409637 3.782325029
0.389135063 -1.859003425 5.990769863
0.333390415 1.080649376 5.291772842
0.064342320 1.351412535 4.612138748
-0.852792144 -0.458218008 3.741139174
-0.920136273 -1.114059925 4.070888519
-1.251300573 1.889193535 4.418216705
-0.960140288 1.640861869 4.036046982
-1.287450671 2.412212133 3.506395578
-1.270594716 2.570960045 3.466356039
-2.203238964 2.807346344 4.245179653
-2.627710581 2.518637419 4.950675488
-2.887042761 0.367198646 4.496698856
-3.954488516 2.878127575 5.139335632
-3.191113710 2.311361790 4.293198586
0.929682493 0.037895013 3.036019325
1.386500955 -1.387443662 4.117627144
1.147241712 -1.814040661 3.742111206
0.921253324 -1.588620305 3.478572130
0.591701388 1.638830066 3.019326687
0.757291257 1.887501001 3.417239666
0.686142445 1.325368285 2.966255665
0.343955576 0.836794138 3.325278759
0.467803508 0.326728523 4.410257816
0.351813853 1.639595509 3.624703169
-0.449388862 2.529348373 4.272616863
-0.311405450 -0.906146884 3.012515783
-0.547259092 0.971919715 4.382088661
-0.675895989 1.635401011 4.515518665
-0.657984436 2.226022720 4.204917431
-0.463616103 1.052065372 3.772963762
-0.345160186 0.990404725 3.558550358
-0.644051373 0.795258343 4.274484634
-0.999693274 2.580620289 4.105188847
-1.129822612 2.632308960 3.971770525
-1.132261753 1.226495266 4.391357422
