ply
format ascii 1.0
element vertex 142
property float x
property float y
property float z
end_header
-2.903705359 -2.514455080 3.295442104
-2.649316549 -2.027773380 2.915691853
-2.624691963 1.340231776 1.941815495
0.355978817 1.202453375 3.501646042
-0.540102243 3.350560188 4.692412376
-2.753094912 2.664480686 3.071483374
-0.489637017 1.298227072 4.497637749
-3.189132690 2.580316067 1.418781638
2.688613176 -6.779528618 9.284120560
-3.818283081 -2.108415604 1.608149648
-2.088838100 -0.373092532 6.479591370
-0.743785679 -0.264174193 6.467560291
-2.570798874 -1.017800331 2.986252069
-2.774951458 -0.216557041 3.292664528
-2.737035036 -0.099171944 3.284891367
0.944391787 9.102559090 9.979399681
-0.689340532 3.078710079 4.208333015
-0.511204481 3.527925968 4.457782269
-3.068610907 0.779674768 3.306362629
-2.859035492 0.761911988 3.309132338
0.003150669 8.667688370 9.620174408
-2.039118290 3.650438070 4.059437275
-1.964873195 -0.873053312 4.358047962
-0.507676601 -0.282124460 4.764272213
-1.431549430 -0.899179637 5.295868397
-1.103730321 -0.756894112 4.955227852
-1.503139257 3.043799162 3.795444489
-1.505308747 3.488977909 4.394506454
-1.369369149 1.647730112 4.358745575
-2.251955271 2.286473513 4.673291683
-0.271602482 -1.127800941 7.313981533
-0.781530201 -0.657728791 5.407791615
-1.035551906 1.620797992 5.562991142
-0.979637206 4.231182098 4.633091927
-1.023414016 1.660260201 3.664043427
-1.348649979 2.690143824 5.690289021
-1.560416341 4.309522152 4.568410397
-1.203682661 4.227105618 4.593600273
-1.035448670 0.374063700 3.314405680
-2.203783512 0.561148226 5.401652336
-2.022556782 3.974118948 4.180982113
-1.973253012 1.243856668 3.606840849
-2.382602930 1.510145426 4.468845844
-2.247290850 3.145223618 3.327734947
-2.404949188 -0.683702886 3.448303699
-2.465245008 -0.735157788 3.682001829
-2.901956558 1.105853915 3.972080708
-2.709172487 0.413557500 3.303444147
-3.029212952 0.176074326 3.283038855
-2.357335329 0.281660348 2.821438074
1.919302464 -2.345675230 7.005819321
1.985198736 -2.314759970 7.674849033
1.394566417 -0.638345182 5.083275795
0.343417734 -1.022861004 7.898565769
0.185404226 1.191936255 3.425477743
-0.426080108 5.666600704 8.310132980
-0.312709391 2.609292030 5.847840786
-0.325206578 2.808869839 6.052426815
-0.694832802 2.581017017 4.611793041
-0.899136782 3.482674360 5.996619701
-1.211760759 1.754315138 3.357450008
-2.176444054 0.937063932 5.376977921
-1.775036573 -0.560490906 4.616798878
-2.163655043 0.475033194 5.384167194
-1.903834224 0.427099794 5.177666187
-1.466119289 1.170460939 3.881877899
-1.595115423 1.328021407 4.013527393
-1.784463406 1.490797281 4.723386765
-2.576643705 3.290922642 3.802736998
-2.207847118 2.851073980 3.760298014
-2.703249693 0.672175825 4.638058186
-2.341845989 0.671559513 3.784305096
-2.334535837 0.358833790 3.799192429
-2.827429771 1.118534803 3.348833561
-2.710437536 1.188066840 3.224205256
-3.622739792 2.611172199 3.995567560
-2.499406576 1.895534039 3.057048798
-2.701739550 1.746226311 3.280668020
-2.510447025 0.535941482 3.278931856
0.127674446 3.030236483 5.645228863
-1.106554151 -0.606092274 5.757973194
-0.908024073 2.698362350 5.413907528
-1.656789422 3.332001209 4.561151028
-1.477393627 1.988044620 3.899678230
-1.630677342 -0.529414177 3.633029461
-2.013168335 3.062013865 3.800400019
-2.582944155 2.061388254 3.360493183
-2.725041151 1.941407800 3.913568020
-2.339710236 1.662803292 3.049680710
-2.680164337 -0.560787797 3.696575642
-2.315548658 0.885308564 2.839988470
-2.545900822 1.037576556 3.321372986
-2.460594893 -0.101712979 3.175806999
-3.442731857 1.993418932 3.920410156
-2.810480118 2.046038628 3.021136284
-3.112102985 2.379882574 3.330713034
-2.785370350 0.527099788 3.317514658
2.099461794 3.495438576 6.025908947
2.553642035 -2.133944035 7.215041637
1.177016497 -0.222451672 4.921538830
1.194868326 3.696776628 5.286955357
0.267343998 0.795249403 2.652704716
0.699967146 3.176198959 6.255659580
0.060397167 0.823438406 2.398229837
-0.447376102 -1.306700349 6.476643085
-1.068510413 0.472185493 5.569794655
-1.507407665 -1.095507979 5.446572304
-1.521147609 1.510548234 4.808985233
-2.353988171 2.061832190 3.918345690
-1.830282211 1.786261082 3.452606201
-2.173471451 1.180779576 4.336328030
-2.359511375 2.979192257 3.241116762
-4.119543076 -1.903442383 5.470518112
-2.695320845 2.775940418 3.102182865
-2.959300756 -0.455471337 3.921016932
-2.689255476 -1.059809208 3.450619936
-2.829726219 2.762162924 3.054264545
-3.160485268 2.520051003 1.464380622
-2.802145720 1.683458686 1.835234165
-0.714811206 4.393742085 4.748265266
-2.996551991 1.466815472 3.223449707
1.621420503 -0.700205326 7.287959099
1.003617287 -0.378792942 3.938661575
1.046806693 2.159419298 4.028419018
-1.061927080 4.457472801 4.677221775
-2.242332697 4.775061131 5.009730339
-1.295443296 1.371235013 3.596637249
-2.258634329 3.053321600 3.261769772
-2.450856209 3.552013874 3.809388399
-2.239965439 1.466060996 3.731953144
-2.747488737 1.803692222 3.286926985
-3.175246477 0.726132691 3.971038103
-2.911477089 -0.630875468 3.153799534
-2.831938267 -0.625753462 3.162734747
1.155286789 -0.371100545 4.039380550
1.825256467 3.002047539 6.313483715
1.977646112 3.206231594 6.556826591
3.083905458 -3.786702394 11.727936745
1.357376456 4.251030922 5.575014591
1.380050182 -0.505330145 6.674100876
-2.550856590 1.960176110 2.041339636
-2.479744911 -3.028517723 2.750261307
