ply
format ascii 1.0
element vertex 173
property float x
property float y
property float z
end_header
-1.637343645 -0.727988780 3.566112041
1.352520227 2.163188219 3.047410250
1.622114420 -0.483038574 4.460585594
0.991593122 -0.321829945 3.574473143
0.804454148 0.638588130 3.416208029
0.687797844 -0.605628371 4.430313110
0.531714976 -1.273973584 4.800448895
0.329840511 -1.588865161 3.806395769
0.363779992 0.102209002 4.198400974
0.274301738 0.120445043 3.293300867
0.257536560 1.948192477 2.985140085
0.279857844 1.388129234 3.479471445
0.172702610 1.957842708 2.973472834
0.148493975 -1.507033587 4.292740822
-0.062417079 0.279068977 3.574676275
-0.165512159 -0.533481121 3.440099955
-0.351418108 0.830814481 4.192768097
-0.429368943 1.795798421 3.440679789
-0.350391775 1.500723481 3.068699598
-0.467285156 -0.901752770 3.691855669
-0.628274798 0.614070117 3.056163788
-0.841967165 -0.559939265 3.288223982
-0.948085487 2.289855242 3.292940855
-0.887215495 1.323049307 2.664772749
-1.460225105 -0.479795665 4.610429764
-1.111953497 0.145594671 3.301472902
-1.204824805 1.637960792 3.222541809
4.378256321 1.594712138 5.094260693
4.209976673 0.303117335 5.636435986
2.166606188 1.711594939 4.768056870
1.656567693 1.554095149 4.248804569
1.194056153 2.151581764 3.112564802
1.734167933 -2.479562283 6.300005436
0.372674555 0.882958233 3.103811264
0.600481272 1.271172285 3.671515465
0.137079015 3.184468031 3.468667030
-0.221009657 0.467395037 3.131906509
-0.266541183 0.494184643 3.103225470
-0.518039167 -0.983448029 3.779238701
-0.864434421 1.115537643 3.254910469
-0.694599032 -0.565793633 2.998062372
-0.753883541 -0.591539562 3.042103529
-0.812165856 1.187262416 2.194086313
-1.643645287 0.521496177 3.295885563
-2.807498932 0.266343445 3.959659576
-1.691157699 0.137194514 2.467503786
4.979053497 1.435791969 4.690423965
5.035186768 2.450960875 5.716792583
2.095943689 2.323714495 4.082657814
1.925585866 0.472619653 4.059717655
2.229869604 -0.473584622 6.141971111
1.175428271 1.003729343 3.877910614
0.467639655 0.973144174 3.788778305
0.222023219 -0.431070775 4.069591999
0.218324661 1.113762379 3.347968102
-0.071109727 -0.293394655 3.620729923
-0.134944886 1.006613612 2.842043161
-0.405244231 3.112411499 3.939438820
-0.210786507 1.236530900 3.245346785
-0.628741324 2.125806093 3.090897799
-0.877864659 -0.127953187 4.123676777
-1.355032682 -0.324445695 2.875288725
-1.192706943 0.009650046 2.613342047
-1.405476570 0.342586279 2.835360289
4.794793606 -0.175368637 6.693785667
1.525432467 1.655775070 3.606596470
1.446627617 0.885205030 3.594736338
0.876954496 1.561152935 3.203008890
1.993749738 5.225704193 5.568252563
0.584809422 -0.113534078 3.743530273
0.497299194 -0.056087211 3.329837322
0.674631596 -0.282652289 4.643938541
0.156631812 -0.659523427 3.766411543
-0.140662506 0.905353904 3.625381947
-0.251865685 -2.334697962 5.207732677
-0.619997084 -0.788394034 4.580219746
-0.490605772 -1.992357969 4.308266640
-0.399711281 -0.138186738 3.038512945
-0.405482531 -0.107467331 3.451951027
-0.500463605 0.186182693 2.914629221
-0.605825305 0.249098256 3.402333736
-4.918252468 -1.695952415 7.237823963
6.504320145 0.843067527 7.593975544
6.304633141 0.914523542 6.915244102
4.140048981 2.264752388 5.899604321
2.929023981 1.517671347 4.048736572
1.348865151 1.356667638 3.228150606
1.545900106 1.638632417 3.727014065
2.274810076 -2.166456699 5.832208157
-1.856123567 -0.816031039 5.205834389
-0.857569993 0.997129679 2.323696136
2.922635317 -0.051218186 4.921212673
2.392935276 1.060954809 4.288343906
1.998322368 -0.743318975 4.197066307
0.760030866 -1.451694369 4.615962505
0.814144015 -1.420432806 4.509898663
0.781168163 3.278652191 3.851453066
0.786770582 -0.452022642 4.730750084
0.789622247 -0.372069627 4.613602638
0.518261254 1.268988729 4.035466194
0.267334074 1.651530147 2.382480145
0.368029833 1.906464815 2.754621029
0.598209143 -6.283755302 8.529928207
-0.034734949 -0.369314432 3.669207096
-0.030094320 0.834311128 3.724282503
0.000086398 1.783886194 3.422059059
-0.141909748 1.459585547 3.272466421
-0.444251478 -1.812153459 4.437996387
-0.511823177 0.824988782 2.833252192
-1.054544568 2.271152258 3.459308386
-1.132247448 0.896202207 3.180233717
-1.001113176 1.012499452 2.403691292
-1.821049809 1.878507614 4.483323097
-0.987392604 0.572195649 1.988838553
-3.252717495 2.514712095 5.959733963
-1.511637330 0.740480125 2.500405073
-2.110707760 0.955681205 3.505936146
-1.718819141 0.272111863 2.758102417
2.830221415 1.807994127 4.070088387
2.577732801 0.961350083 4.322639465
2.455718994 0.290122807 5.072968483
3.413824081 2.083779573 2.385486126
2.367735624 3.017462730 4.038217545
3.362108707 2.151006460 2.206685066
0.705121636 1.595787644 3.142823219
0.370067090 1.993064165 3.487996340
2.288975000 2.574943066 4.253372192
0.355055928 2.294827461 3.144442797
5.439789295 2.400457621 6.166902542
2.257405758 1.177653432 3.917139769
2.007762432 0.819232583 4.545101643
1.476746798 0.146729231 3.575867891
1.277440190 0.166339576 3.172297716
0.210114896 0.826511204 2.609509945
1.587491989 1.202358723 3.662278652
1.058063984 1.066621304 3.826636076
-0.673431396 1.106876493 2.863630533
-0.297925949 0.576719880 3.159932613
-2.825674295 0.412165374 3.805491924
-2.309159040 0.012835115 3.605651140
0.125591770 -0.644520760 3.310449362
0.152452931 -1.761339664 4.805448055
-1.104103565 -0.990964532 3.721702337
-0.402027518 -1.230420470 4.384131432
-1.087283373 -1.293816686 3.844816923
-1.298718572 -0.503060102 3.687387943
-1.690301895 -0.715135217 3.586792231
-2.050334215 -0.216552898 3.171992064
-1.569059968 0.679704130 2.745751143
-1.287924170 1.064830065 2.344817877
0.439224243 2.013290882 2.187737226
0.983812392 -1.558973074 4.961019039
1.302517056 -0.634433746 4.390261650
-1.083178759 0.662898839 1.989860058
-1.107657671 0.723871708 2.208436966
5.131990433 1.343824863 5.684321880
3.073185921 1.751255035 3.930639744
2.238002062 3.234607458 4.195165634
2.155965805 2.995490789 3.881186724
1.024880648 1.786313891 3.439757109
0.976422668 1.794361830 3.170001745
0.665376961 2.161282539 2.999955177
0.326312304 2.462506771 2.753868818
0.090596221 0.678462744 4.029854298
-0.215332747 -1.102992177 3.603030920
-1.046387196 1.705147982 2.601098061
-1.120658040 0.323603868 2.729926348
-1.010698915 1.257540703 2.702708483
-1.791992784 -0.201140195 4.136425972
-1.337084651 0.839443147 2.384191036
1.646561384 2.506210804 1.018423557
-2.915227413 -0.974216580 2.464692831
-4.627005100 -4.605476379 11.071282387
